ncols         233
nrows         24
xllcorner     405445.000003
yllcorner     500595.000025
cellsize      50
NODATA_value  -9999
397.586635848467 395.486453737736 392.493508841431 388.884843720007 382.907826260671 377.501385382596 371.948759776657 362.987713380614 354.880595255322 346.700070754463 339.181976342629 330.868512247438 326.316669119269 322.75022637612 319.618122811969 316.902706645609 315.714531111733 316.573156899006 318.679931608949 319.997593014886 323.00968331637 327.209261100033 333.201005043367 337.966917411061 339.487486993286 341.301031272857 343.093719330468 341.951205416546 341.981842336903 344.648415652563 349.477282124447 350.986363683355 350.999892313927 350.999291332102 351.005120703248 351.888753594974 350.990557473558 349.473755409182 346.968855701045 344.012997436031 342.521007345899 342.196098099646 341.2989945413 340.100874875916 339.180166652911 337.690433522814 336.79351116275 336.490404317778 336.486570159168 336.486135621116 336.760222327126 334.976098315011 332.016977341225 330.516143214684 329.892016931981 328.080564496783 324.577178962392 303.052858598871 276.886774664644 263.764798076854 256.286407307856 244.344256540553 232.156444752722 226.343074581902 218.282131707044 212.035537248672 210.185869751825 209.237233714277 207.998771959736 206.374810855408 203.0933234419 197.386119967989 185.963016295777 187.001517794439 190.35842891957 195.643453616306 200.921399989588 202.949176152143 214.589512859445 220.924195186581 226.851475947909 228.150497087576 231.190530546403 241.732784106074 256.084912578843 271.274602349843 295.68773869599 300.918968051257 298.583981806181 296.185564072163 293.19506752974 289.625230410484 287.31423418481 285.426036308404 284.404648988778 283.009442391397 281.714976346965 280.709626899635 279.869679850705 276.988757160331 273.825723536864 272.773282757172 272.235061322011 270.780335081045 266.372470864616 264.873859793104 260.194801344114 252.284792439892 236.884434770233 226.120029090072 205.558720793159 193.754487861937 181.495090453649 174.874286326964 170.466699171105 166.235771795998 178.23283662238 186.787296235903 197.430161892337 208.26076196005 216.237614117093 234.564664889152 255.869843371962 276.862131341498 284.469265638388 284.592246211782 284.609349476555 284.654568504697 289.872896212263 289.896791130783 289.884215628552 289.546249021199 285.677438194337 282.495607586103 279.441366379357 278.326320372487 277.30425931118 275.295904488827 261.540395971526 250.916666345019 239.456632499049 224.046742654711 223.364127833497 225.070887168685 224.996107563298 216.227998852006 211.056644828662 197.873143354172 197.746392536782 201.843603727077 197.041516410061 198.42579607521 198.237791438839 197.960698859461 196.727526799014 193.663128990114 194.142467178515 194.313618503347 196.294348300195 192.379752486534 179.569564522744 177.881903590146 179.769509231923 178.459578397103 174.092216888326 170.299315416461 167.975081342246 168.775125366882 173.614834825023 177.63662072947 184.322382887051 188.537175502672 191.857389420185 203.404163060383 209.355274362221 217.596618616951 230.788747615915 249.946859670993 272.249264623466 280.813013779685 278.801904002482 279.875002686841 276.942923894063 273.008723974694 270.720678632827 270.833100118172 267.466768763525 265.39683957152 263.572128303742 260.726021700798 259.382005955373 256.922265428376 255.998001481651 254.162698398006 250.331602460806 248.048176015685 243.638940844398 229.429806585599 214.056570460446 209.212824295452 205.181885912057 206.528585070951 208.511768736728 216.18931317903 220.32991592156 219.461135653317 216.608936517459 225.226620669605 229.330637828926 230.05365552167 228.804129032234 228.982028467568 230.034469592553 227.213528024635 226.145374815765 227.388553063251 227.400290353085 227.783720688017 227.390727307151 226.502805288609 225.687585174958 223.702970957094 222.588472215806 220.805924604624 219.685856115285 217.31554698465 216.390193269923 214.599106348168 212.919198645544 212.889333168866 211.885564798382 210.088037347215 208.190924203579
398.196923732684 396.382323895448 394.28092261647 390.982094308984 386.19301519179 380.793929807936 375.557394621326 367.781707179886 359.686965379017 351.034412754787 344.591866188268 337.680646542403 330.241528010889 324.862184276167 322.426743900515 319.029480243427 317.805759553679 317.793809392139 318.11307373506 320.006657433279 323.292822897402 327.824606063787 339.135585286204 340.992294724355 342.799029770841 344.594347097931 346.385921809055 347.859108086088 345.223949958887 344.965084900143 349.469573234583 350.978463688259 350.989660053966 350.988064667504 350.009753671034 350.677049932176 349.458588616321 345.195866703637 342.513737132325 340.421151074703 338.909445968633 337.985157385265 336.785828541122 335.582030363432 333.52275652446 332.609747379728 331.420756325516 331.115946265416 331.688793337451 331.404522805186 331.390082818526 329.906552193912 327.829406739855 327.203387567893 326.886743996925 327.459281982508 328.897321544582 322.332321404394 302.333054585724 283.076519004128 265.919624657478 261.127328160893 251.502752009127 240.773171160122 232.010341735795 225.426848023267 218.875345203358 212.894879699779 206.808988952203 202.576193938032 199.262328371983 197.637927328205 185.007151276683 184.285533075831 183.671411469305 183.053747336049 182.533125934273 194.170137997409 203.43877432799 212.745098099734 219.294787065616 223.465987106653 221.95203903506 227.979615950811 243.531736098115 260.375115660058 286.61701299765 295.502202650642 293.793307099831 291.594864280868 288.891754755552 285.696897570818 282.815268870811 280.730676463834 279.614131036843 278.333292783214 277.810933008945 277.004194761392 275.69282522207 273.292852906633 270.661706118983 267.312305033482 265.648611979437 264.795739161377 248.767119811361 247.508062020383 249.708142249542 240.791880723379 231.890358302265 212.785939656029 201.665579042825 188.485848421008 178.386307356321 172.321356249647 169.86750957304 165.074211481758 178.642543436678 184.118438566014 192.020366399917 206.075538543282 216.423105505823 237.069397031807 254.286313829028 266.357317066439 281.196141254923 284.451204634648 284.543427450827 284.614851063275 289.844046892106 289.858135649885 287.756393747763 284.882691123614 281.702380762305 279.611491047255 277.346127294611 276.682370777679 276.044270883971 270.571650082226 252.923836479078 239.530358052501 225.367951560086 208.963265424927 207.779734793013 210.35757545205 210.00783017439 203.060908689565 201.102644475512 189.424311123874 186.386183709842 190.91050859608 186.558532102055 191.563688957528 188.842111483995 188.319930887143 189.231841656734 189.500205173031 186.90946263093 186.669989810924 187.370096475617 182.128101435443 173.013016602991 170.754773888417 169.107484188638 164.548336701196 160.191286228793 159.348846599347 158.26551096744 158.584316555137 163.392521319167 163.725622215676 173.268808556539 180.93461348093 180.716892002094 188.331206246095 200.968935868469 201.428122406837 213.411058711806 230.511045179428 252.37448943835 275.172401178155 279.850317666163 279.865812218339 275.383719962841 270.955074697436 268.86647616648 267.820002948624 265.909297671191 263.796372392619 261.988989161899 260.8464354959 258.261806550496 257.073906399944 255.933639962348 254.729578693948 251.526640896706 245.203446562657 238.103399317348 226.467575723167 213.237361563621 206.200348399245 203.231568494666 205.065612053629 206.823800718938 209.484671190775 214.564225677955 213.9960189371 213.179009762798 219.067464334349 221.398761402086 223.866824649744 225.427713510174 222.657909954312 225.231519872077 224.242124941707 223.446411122265 223.847351766438 223.485531819006 223.484174638259 222.808020533281 222.791503133447 221.986197686059 219.334822033929 218.312536965155 217.485206759334 215.594268261763 213.806727970499 212.88453398081 211.091016719826 209.608517738391 211.035491777394 208.384738095414 206.100087448029 204.687376410252
397.602696489902 396.392791944459 394.867930532584 392.464580480671 388.862104204867 384.070605656089 378.375781095269 371.974263022675 364.487660981175 356.708678237416 349.803714746887 342.812734425724 335.889453779236 328.458834846462 324.237620539932 321.539207917415 319.037400318783 318.40648451677 318.403407102762 319.023275341338 322.012009301184 327.839313945753 340.896742714367 343.684023612523 345.495299715081 347.592427594305 349.188669376553 350.96902786961 350.964111259175 349.78353428714 348.910427422458 349.200603313213 349.479677205756 349.760849909804 349.751230795451 348.806525188423 344.312279657858 340.740636287413 339.802114752806 338.281669406154 335.60257423542 333.230516487134 331.446602517837 330.245400688542 329.621156874973 328.704347893568 326.929107264049 326.602812574992 326.881251994941 326.600539653 326.883119705272 326.280939299991 325.082273434044 323.893694912229 323.294596515454 322.70755136438 323.864742713875 322.931695993878 317.831686752088 308.426705939292 294.291756467925 270.132488041265 262.744962845464 254.036182827023 247.998555953126 242.869197618998 237.737003227347 228.379526072348 215.577962972607 205.324867037935 201.053287761039 196.178937620352 190.930782604599 189.300661858334 188.875744668114 190.333303888358 181.536390152947 188.983171607684 197.385271768548 202.538850094177 208.291169763844 213.601926022367 216.714383743761 221.908839950061 231.810794079277 252.144665103832 276.411936546142 289.963430007396 289.187256333085 287.667678077228 284.694682358558 281.236915469913 279.113017109577 277.027478890622 275.731923362643 275.207468570908 274.606750225285 274.091377019091 272.308257918262 269.620660864711 265.939187819716 262.301122812899 258.619018485606 247.187229748527 234.42339040833 231.127684696265 229.773526027153 226.202354136876 212.067674667511 203.266475980277 192.464228617476 181.264290142726 174.951571099743 171.968622072232 168.764932792624 164.036825663947 174.597048292591 181.170301158268 190.148289334509 204.508078331619 211.455989478575 227.119354369617 239.454886273954 250.710958751066 259.252421054452 268.529114848239 282.577606224212 284.40802945497 283.13974702671 284.481318708399 281.657973468672 280.863431263885 277.062237344203 277.310455816397 279.81856720594 274.856160242345 267.903321843579 247.385379591001 236.801031598575 227.125506025315 210.020743697996 202.501535315249 200.989379886998 195.016215932445 195.569007352448 192.684250530043 187.500192892619 183.6915525375 179.966854473294 179.8939116755 179.284520022774 180.398464193441 182.108242232211 179.04022844395 178.547411254327 180.985501699936 180.714935073258 177.060072392196 172.990958346115 171.598677556816 164.503551209757 156.213827056229 153.500983857906 147.008460924382 150.276242268699 151.079705939281 151.876094504625 149.243637985257 149.388325819725 155.691898735861 163.469888840476 169.200358262368 169.165353318801 174.733699313648 184.547458296439 194.226626683528 200.636567877657 220.044026648642 238.355305137083 265.099333317506 274.81449984875 279.526092572241 274.103462065433 270.915012644328 269.826593102458 267.256482323906 264.596057900845 262.273946537359 259.591256699007 257.501066326873 255.408846644653 254.171460694497 253.53260507868 252.545465020672 247.077813987679 238.0390057896 228.120073809969 223.560059213297 213.918956604193 203.981500792381 201.086366338372 201.681231894216 205.115204468089 208.967250870413 211.029206840303 209.584179644411 208.855969174138 213.749461257957 214.217697150502 216.587281373878 218.445985870896 218.644176891942 218.256484457948 217.662416613926 216.228280978631 218.232888808492 218.455063989297 219.046868961848 218.677886765078 219.253446726856 218.438688961101 217.371267520987 215.089195052168 213.753669243275 211.130753429492 210.68462659638 209.18055532111 206.988003472858 205.51179702531 205.494719740911 204.680274734693 201.812380385115 200.592832864354
396.993557907501 395.493333631048 393.987665239278 391.586424692201 388.885074302003 385.27295310994 380.487556987692 375.561519673563 369.542264080679 362.094809461134 356.068182612751 348.8711954545 340.979742227483 332.642763629533 327.512739019422 323.613824622447 321.214505183533 319.023791339823 318.408814435045 318.430419440115 320.544416146782 326.650817091796 338.832238494264 344.265618239087 346.985662253961 349.492435020085 350.998803574267 351.610401406468 352.205664258932 351.901179493222 350.702856752275 348.895430431027 344.989507159415 344.938647910352 344.623822763765 343.120952611226 340.443243260927 339.214282844963 337.708435414822 335.590375865258 332.606764249214 330.243879875736 329.034068764363 328.3961638774 326.929174624386 326.287727517699 323.339588271366 322.024266608032 321.262415235903 321.835521882074 322.417973066177 321.823332648475 321.196165008994 320.005627486163 319.583691307558 318.684183472239 317.789166681736 318.067329188754 318.319624488333 312.560917893455 306.333874246659 299.993163703125 285.290589688215 274.525519348613 267.587800456337 258.528793033618 255.438257226078 247.032552369417 234.363384378221 221.208778984241 210.439030827983 198.632334175563 189.279793609624 188.789840636978 188.943451765516 188.135973160372 180.586816212597 188.147239533901 190.838536703346 195.879712224658 196.671771658003 200.616119753292 211.780045928633 219.905467152203 223.449135065468 234.9280424837 259.120912346564 287.151903688964 283.496051657066 282.303129200984 281.086679380935 278.777581933947 275.714504022388 274.108840096806 273.28784173653 272.303631940404 271.711042054292 271.677458302635 270.196779750991 268.285333769728 264.395224837406 258.343657153414 248.97015834528 235.917873848687 216.803581173481 211.635171795318 205.828249097198 200.615793991756 198.533924780656 194.004632895845 183.07613430995 176.072745893673 174.808028934959 175.06800901433 171.428112570318 163.094209666985 173.277081414996 180.384481470712 190.598353092514 201.305697072571 206.675060568892 212.495124856157 213.060108780501 222.326073265304 226.635452580879 239.276359045873 246.482343337798 256.042993423887 263.369011012668 267.579790257846 271.533215224738 275.698466552363 276.579885387297 275.515008724549 274.279944599459 259.941019216648 242.226891910229 236.348468058383 229.801875375031 211.199173602686 198.914814131496 193.458789586607 190.497868768297 187.179243399109 183.004504520413 180.420113229696 179.97299157899 176.644525705473 167.40989953505 165.629814168147 168.320158050177 172.070494564425 172.835106325696 170.350544447103 169.293400644185 169.709201391909 164.878329413774 160.960357557265 157.996299344973 159.84035995144 150.33144514911 146.166858230462 139.382582158651 139.182562538166 139.194959407068 142.418197234401 144.184097132327 150.971263840024 149.678098071168 149.581995653989 151.972544056917 156.950016385371 161.711229230674 165.165026758962 168.041433409863 183.245068105125 197.722936059008 216.15939358009 229.470174465364 245.836623235139 266.578898859783 274.535404445122 274.365078099196 270.895537597251 268.767368394982 265.388933602212 262.486705265722 259.588518890002 256.690493144411 254.58684511739 252.943798802961 249.395848025169 248.300547447962 243.695157559675 239.440072198421 229.298245522006 222.473521148363 216.404734273491 207.342553929825 202.2340749454 198.90828530191 203.129623651161 206.050872935965 204.525492596058 205.901897549576 205.155305941786 204.185057513061 207.545795975901 207.431423593616 209.585913714343 210.111885679513 210.130110856754 210.310096032265 209.236243150986 209.397288400734 209.775902001802 210.081592707014 212.19560799276 212.801176178452 213.220057158075 213.178283866441 203.213905194703 203.35663091067 209.694585392942 208.342652427863 206.480838952453 206.022460202397 200.657874642682 201.380108560461 201.967698394688 200.389953558416 197.908590712221 196.207754602678
395.490440346699 394.284750230322 392.780119347949 390.393255197537 387.985548353828 385.282670383037 382.250032285043 377.764566021075 371.12969992685 366.584011965887 362.013813824655 354.244507481318 344.896463442583 336.526847610937 330.503019494668 325.425247446664 321.833868381771 320.011283584611 318.420334675498 318.425548024111 320.921612083038 326.63381251385 335.289112838244 342.764749005055 347.290166000473 350.686382867907 353.092860716471 354.889105577805 355.787823777826 355.48333691903 352.804850736879 350.695289062634 349.186673743951 345.522964935145 342.820605627176 340.445027821076 339.224072739539 338.595679949146 337.655582188016 334.107056935528 330.582909916829 329.048267360226 328.408821661559 327.487767712765 325.719536863906 324.203215837263 322.671323398129 319.137297518598 319.048787191597 319.046648640474 320.861603102017 319.5662880539 317.197696626537 316.004403304529 315.678513116171 313.623784828425 311.545429144359 310.6267915487 310.022172674385 310.861674505695 308.472546770813 308.709204175484 304.790197979729 299.672728164222 291.505724616975 281.651260232686 272.386303807722 264.865175016879 253.066198724741 239.851156217442 223.623765408068 208.647365904639 195.98203155484 188.333183429973 187.913830044857 187.293622774862 179.942876425516 179.361065376109 186.386955922222 189.224078874238 192.189090867998 196.186229141593 201.988924148187 212.73646187375 220.308815785791 229.146369554645 251.644418208493 274.924489867333 278.396444109636 278.113675124767 277.191199013583 275.388415547986 272.808557344604 270.938615329221 270.400834017423 269.423630057325 269.119679790262 269.099988824046 267.844259083144 267.97496120586 264.86518932985 259.375263324059 253.547538949966 238.97519511285 214.909633282238 204.358437493725 196.501592438212 190.976608475373 188.474134102261 181.974352726824 176.021449182106 172.667306781776 174.260805536941 174.769627938698 172.870654997524 162.249947684311 171.335577221707 179.598847655749 191.310608113975 195.077311389472 197.712807025447 199.192869774246 206.155047306352 208.32167116652 209.998594479093 211.397782498923 214.06435330418 222.294644687864 220.432108393856 232.284338143613 249.639066978264 257.014014071599 268.421490152537 263.253772512122 248.928695914749 238.502878470244 230.699287322012 219.776912079062 203.043884329754 197.777310690494 189.286217217421 190.920755324671 184.480381279945 177.263841103917 171.803116109811 169.023063362596 167.650753533791 161.815371902544 158.206092625302 157.011455788093 158.916300378034 158.46891911385 156.493035075746 159.497208674104 159.514372396798 156.875100132737 154.684894969162 149.677567538545 139.075755401887 136.346709401717 137.015503953058 140.910314394544 138.251791899246 135.511391480567 136.841110027531 134.603633023389 135.219150162719 137.626617123538 139.558385509335 141.032872794518 142.418185478913 150.157623060004 154.735981017589 156.975679999194 163.209913688464 171.23539146097 189.983607102058 204.17073323903 209.536411824513 225.277816988494 258.086206883211 267.713568740431 270.854507661572 270.845420017784 267.706485211126 263.728978786332 259.547824024292 256.160254923562 252.96130774702 250.816202646559 249.443055571258 242.860153730348 240.581056181141 234.91845104886 232.259885755418 224.924823118436 219.456485621294 212.481664205983 205.147334004219 200.093346561144 194.37613997617 201.750201940861 204.83440319002 198.994175858792 203.468525086264 206.005699274531 199.509907082017 201.737397545785 201.426072993423 202.988093583173 203.50613166971 204.095031782533 204.089190794556 203.203107986467 201.654166982099 200.8700880987 200.481297439329 199.813667946 199.636774381488 203.189339096963 202.209586374504 201.518865077509 199.074312138518 200.764844577141 201.568219651812 200.980284336347 200.907606697421 194.135195758675 196.189648553789 198.035097934498 196.553333079557 194.360252138273 191.90073679148
393.390340135704 391.898644107571 390.693277574773 389.175134643924 386.477728565936 383.782251939439 380.803980473923 379.53678633266 374.943976832205 369.861071076061 365.032529099198 358.399111590458 348.278903578178 339.491256372802 332.603684369245 327.48863626328 323.011674175148 320.024370553912 318.714733312982 318.421845421405 320.531089124136 326.602565161129 333.204445294264 340.986652587381 347.860729251552 351.287971106884 354.282732527221 356.980767701112 358.476176090419 358.175752139298 355.194891961762 352.216252952018 350.012452462015 349.170397005212 345.202462476495 340.739639833197 339.220341794844 337.727472972005 336.793897232302 334.670268228147 330.284528489034 329.038317130215 328.685056197799 327.196200553402 325.404129046936 323.588091702006 321.761800100699 319.06759303815 318.959348456907 318.788779281272 317.68540886556 315.96679027787 312.722959156937 311.794120062988 311.469670287118 310.854072777628 308.769560561965 306.407910137227 306.106497265218 307.84963235767 306.949391129846 304.887791311997 304.866874509333 302.736119430593 297.649876793668 293.433318117195 286.748622289738 282.205120964535 272.044719994425 258.48711876641 245.871371078349 233.148852144921 218.726835413551 204.296364618036 192.719946287199 186.145584695759 184.203716834875 178.766468191615 178.189736711417 182.815352566182 182.060748542846 190.685726579654 195.330608240388 205.443722883579 215.384136115088 227.768648588162 245.864845283606 267.614532697746 278.290895023705 274.509729639042 273.878106990885 271.52416481021 270.200482911955 268.802340805454 267.813572143525 267.049901571805 267.330231532609 267.520737653734 267.514449643049 267.790985645122 266.648025229291 261.467033281525 256.746330943829 242.262887089906 210.513745774383 198.468900612471 191.09464541329 182.82772773998 179.64453973233 175.668207816407 172.571727172712 172.19074306221 172.477092331548 171.712861998636 170.172226614815 161.452665634848 168.500851928227 181.038994188575 186.35405573837 188.484231375248 190.853761049687 193.452029327081 196.631984413792 197.188013643518 199.707837392402 200.305358638246 202.400974765102 205.809992436149 206.672876289961 201.809275624413 214.280566921817 226.241962615485 234.972062820038 227.862595390809 217.453504512541 209.969819415991 208.64580363909 202.351005410349 196.260664610598 188.606438319927 184.326128430631 182.537064617529 177.065415618523 169.94125229588 162.54054248913 157.37818362505 155.670882738862 153.827929435176 152.663229060093 150.341115618148 148.332629118524 145.309755571656 143.436196973791 144.450771767774 147.887541946564 145.481056852703 138.305290861801 134.839781106189 130.891884965014 128.873010700283 128.895572380427 127.667526620672 125.109766229997 119.394136092525 119.26468378774 119.262334714162 123.143853608502 126.951781994521 128.177669219837 129.525290102963 130.037437416604 137.570645526527 147.141935353095 151.545866943897 155.154747298817 162.619982177865 175.924102911698 188.46460892383 202.139926992649 219.093540406022 238.555267023064 259.706691145672 264.975425324042 263.680610438664 261.3334158965 260.635879207317 254.17861939672 250.524090968152 248.109340161488 241.777749388245 241.128829536202 236.921667843499 235.503722211412 231.069995217995 225.713519729228 220.613544167877 215.177782912959 210.182698273517 202.003857957337 197.296927525421 194.078656755618 199.643108814747 199.075013465777 196.534760769723 194.77270703342 195.284071617335 193.323227280081 196.935336718103 194.991785928945 197.38235396782 197.212631853697 198.744218993621 197.800130930257 197.801979256302 196.572282224394 195.990701794896 195.216234840469 195.937081227758 192.976588056741 195.548287494191 195.169555141058 192.733282010988 191.564826063287 192.333211224528 194.366191781281 193.795364780047 192.877268107805 190.716329612142 191.459168306714 191.458394026388 189.596679374416 188.381084763919 187.165977537759
390.690665168692 389.496367127291 388.584373467596 386.780718615234 383.507660067098 381.105309063331 379.296333981354 377.776083786099 375.566749853061 371.342185386281 365.666745665181 359.894825026224 349.968541768806 339.854366497479 333.513548907991 328.388913344263 323.326129588287 320.034253916899 318.428443606497 318.126171150791 320.030489368033 324.526062754103 331.696769086987 340.353937288831 347.544536552543 350.983586288653 353.98655232028 356.67491409745 358.481089043414 358.781087387316 357.863029512021 355.165186209422 351.898758104402 349.992700115779 347.884113692253 343.704738106596 340.128585893034 338.318368728083 337.386119600694 335.595590644739 332.03450189581 330.21151885238 328.991960886738 327.479737193323 325.126981281416 322.741608391554 320.104373412128 319.072551311285 318.914040078234 315.394435934641 311.469353508725 310.906899058948 309.040700428168 306.680573666414 306.081303523647 305.472898296752 304.557288918424 301.637766894048 302.192385614144 302.764110128829 299.274212060833 300.990134440479 301.857873309802 300.069041534808 297.952665825326 293.16677080291 288.591020378839 285.839564353555 281.009341077419 273.251104374371 264.426257050498 248.890808726268 233.192224043818 221.435670319003 210.651334180165 199.492283306041 185.504939180038 182.014920702702 177.611229621715 176.688003848508 180.876451263169 179.974277620195 187.228260108656 196.720331579695 203.418900307085 213.537550795416 238.244719902902 249.317598053055 274.01408233143 270.894798160337 270.301508166478 269.579675295111 267.32311547827 266.511031222762 265.743669630312 265.939687779472 267.279425393701 267.501377380761 268.005768512484 268.298921412431 267.271878886452 263.737529493546 257.031493616084 242.528284847083 206.890365800494 196.208059816113 183.58362333703 177.115113750232 174.847494531644 172.541448249525 170.94874085774 171.091194970439 170.164814787289 171.102212630247 170.596277901511 160.528131696892 171.721978397231 178.385417260057 181.033183823261 181.06848323034 180.921550173448 183.274131991096 184.765656594337 185.385094374996 185.393160460414 182.577029000677 181.476855137706 186.611851104283 192.010894145004 194.044937687455 197.771596258984 201.549969624761 204.246692182085 203.652882471239 203.083997689984 203.734505685493 198.804972816128 192.771511610236 190.989631793129 186.725661613248 178.144572931131 170.832292386007 165.026910900136 158.499404871401 153.305321553855 151.380977287585 148.538760682614 146.495770896285 146.419273633787 145.346612118386 143.742591465259 140.206067247321 139.029891721511 136.064377633392 134.463112890409 129.169129470242 127.578614961508 124.373046863582 118.978151627377 118.853388795609 117.067958110068 116.675800818359 116.525505468073 116.024494108011 116.12813413218 115.588228934441 115.342466200462 116.049873698145 116.411312752804 115.900333440739 116.495985791125 118.738964672199 127.38075734785 140.773962572058 149.295154501653 155.706749903506 165.121210072818 172.10439288668 190.596173492375 211.294131660713 223.53169327874 238.276352127449 250.988155664182 247.855592923176 242.23211133957 242.762704342119 240.14909571913 238.050874062275 235.944044605072 234.561417396321 232.175397748264 230.474846807656 227.267202012369 226.248367217101 221.205437106656 216.861857678337 210.694928182988 203.541802490532 197.001003308698 193.767527171215 193.337595023337 199.177208871214 193.549170654675 188.798117338992 186.142599465387 186.276175729355 185.390275608596 188.681142853747 185.203622013114 186.672972281111 185.15504369879 184.576271194844 185.914814441602 187.737316706444 189.874243729953 191.742187555038 189.97827557367 190.253034183539 188.782925949036 185.987132873802 187.761270857596 186.511230015474 186.315077201708 186.125468948702 186.698501527317 186.702451223884 186.121346045171 185.919928090961 185.86584368842 183.901291967632 182.780785337754 181.39921754211 180.769074157774
387.396078525332 386.792652625782 386.175509147538 384.086100695506 380.817588497509 378.708193977798 376.912057562654 375.595145782485 373.773002729024 371.044801987026 365.616172848806 358.720991195977 349.990106060473 340.734268637371 334.116878499165 328.421673630976 323.351150079699 320.326811348449 318.431869186598 317.831905671252 319.032117228713 323.021319634806 329.603861384685 337.381325254957 344.246899875223 350.92488897819 352.176163641141 354.284765480003 356.675705165398 357.577898835119 357.273587616873 354.886067053121 352.208599491238 351.285023768601 349.776119387059 347.275232781189 343.099991082934 339.25212089664 339.194661250311 337.399206499877 335.555854281283 332.32578234432 329.032828689271 328.090181617742 326.006349252576 323.645185147018 321.845013618204 320.543602759959 319.301322152428 314.8484871177 310.230548931097 309.212772727621 308.184940090976 301.247687507378 299.475524666236 299.171821622296 298.240113309183 297.700990081775 297.923875555607 297.320953603037 296.706935835628 296.658562063375 296.059437134437 294.653394673915 293.747139230762 290.367146335823 287.653598479959 283.777098180019 280.759414129791 276.245338344825 271.981951856962 259.935673526189 245.319048767884 233.560675699633 223.325718048123 215.730276785471 200.686244941327 188.723657006684 179.76182012026 176.146914053427 175.221870518864 174.235225807938 178.88682539992 183.842673694447 191.173809418177 201.453101613314 225.809892193872 244.102302784536 263.120872418369 267.866113567349 267.615434528144 266.990645457725 265.121582990395 264.612797909462 264.618997184753 266.176858441775 266.700494973352 268.595864603022 269.885040647879 269.878743146826 268.762182453812 264.050284227935 256.61081684173 242.618990766726 207.120254927595 194.602766531056 182.724490798352 175.551447362152 171.98392667121 170.439023582785 171.065359667327 169.062682679035 171.075725522451 171.09212203286 170.559826476267 159.380645849511 157.855410295888 169.870511983751 171.472128804068 171.302765206461 172.598925047539 171.722818984471 172.249386156255 172.55396261836 173.931391921754 171.023287551242 163.392265816999 161.409575612132 167.044284662287 179.365858405948 188.996688137874 191.52459059803 191.841703182821 193.731753141411 194.047739599541 194.470647494813 193.086107108264 185.441175803699 179.21405821244 175.715438539714 165.512006266546 157.895725968057 150.197433326792 146.823147860789 145.404683612244 144.641017107338 142.747632682117 141.415140980059 141.785623973244 140.946850794165 138.435002895012 137.557439246924 136.2983515284 133.473319722982 132.253312932173 130.836818889726 126.702559114533 117.497285097029 117.203931454021 116.962539184894 113.197410212714 113.011309469939 112.822099595879 112.628261216635 112.435596433134 112.241366433997 112.04636138794 111.851365895958 111.656054972499 111.460647986381 111.263510142462 114.689284908897 115.374526626773 126.693733696636 148.123901130173 152.567643404076 155.208188747398 163.393879642735 180.450699102606 198.46156182909 214.500838797874 223.24346786181 223.554786274867 221.534519137965 223.867503459958 228.409108372448 228.726242704848 227.018616979584 226.970314056902 224.941152352946 222.343398924939 223.188596790555 222.553064202013 219.892693239579 217.445806060659 211.878497389843 206.924360757154 199.847372872544 194.143269162641 189.89693773976 187.935778313598 188.612567769573 185.931313910013 181.419052295107 177.406816803854 178.253766243263 178.284955920353 179.798304095784 177.69739353358 177.063084328112 175.786013063506 175.185808221321 175.022063246923 174.720645028659 176.958638713225 179.859352580341 183.737042750233 183.538734166985 183.836291133432 181.202874454248 179.338274968784 180.376811272015 182.49440730894 181.161434333353 179.539052666495 180.761014729814 180.584192348478 183.232743408764 179.024937871061 177.034670438715 174.596701082896 173.990890385729 174.898108607989
384.340795566622 383.47539639391 383.159728096499 381.385553842539 378.999213957797 376.513064472586 375.285581994528 373.774572589002 370.795868047599 367.464192712267 361.785862985907 356.06789521736 349.46247171988 341.887206899392 334.993640922661 329.294864803403 324.217472825123 320.530142868473 318.971837224677 317.735999350218 317.78739450292 320.907660373568 327.763298163849 333.77056311403 339.194657718902 344.581146104468 348.278558994315 350.690805305904 353.376002695594 354.283494939087 354.876022748019 353.976544587912 351.90512749456 351.88047827062 350.693623807154 350.968704645506 348.275016891241 344.304957752903 341.336693805782 339.824110922249 338.884550844993 335.889725716407 332.010470822639 329.060149108379 328.711198189976 327.786630276874 326.281442877662 324.196652830237 321.513683872744 319.263612229251 314.4630871003 312.127372613004 309.968630996754 305.175751140288 299.414599922476 298.501420717159 295.333518993374 290.576874536763 289.496619215505 289.192423621035 286.820662392844 286.314623045259 283.304978148995 285.099546169229 285.716121212958 284.900816272761 281.360337935817 280.715203584476 276.566458658083 274.137666256276 269.623971657556 263.909378388097 255.713952989667 250.908048667961 241.02422163172 224.20532834772 206.739899445667 195.043302957765 185.760670201936 183.571415155244 181.757909254957 173.660608698171 172.740704232329 171.766853480105 182.352524111982 190.648732777656 206.548211479847 232.860663506091 257.048937080169 266.58945826816 266.666101043507 264.406247817949 263.30760926294 263.009187138187 263.788793501056 264.880400926289 266.98148449881 269.54534352925 269.867455328016 269.853504606148 264.632571158491 264.571484470299 258.70954700505 244.843793760899 210.507576914578 198.282175897886 185.347050586295 175.231911350712 170.50022690959 169.048464835961 168.512374696062 168.992646088976 169.006319565799 171.06601958151 169.734277975123 167.464368498989 156.253052141957 154.090273208235 152.377555160864 154.05898339089 157.783678960367 162.669528368497 164.768262183845 163.531674641192 161.867719430085 154.92275423402 154.76961679046 154.734256083402 151.982923901035 148.60000224501 161.393767915969 170.776550597771 177.042627680724 180.771030350448 183.612953153031 178.759749998174 174.770855866262 170.05686651168 164.493059257859 156.082327107539 150.02826725703 140.058418848569 137.469939393206 139.039064850065 139.331050546314 140.964486026368 138.182875564467 135.645452803132 134.303584680943 132.415503388477 130.341349622226 129.285785974767 130.438185069276 130.109409411042 125.178056350732 118.241933410275 117.791516237146 117.266239174304 117.262191855497 116.299754628509 113.375733871146 116.826521053148 116.795387675681 116.756940517699 116.535067004149 115.978723428952 115.754533911049 115.755188433597 115.896807448818 116.02813504907 111.075457452472 110.8859673913 110.693934313964 110.502948149511 132.556787243426 140.287453934683 149.278808668307 163.727153733933 173.988417537805 189.980271045818 198.303110426716 208.699148654854 211.085606502554 205.245761626172 209.145588338087 212.531481500995 215.824870714007 215.634710974047 218.199813682668 217.75999067663 216.99375011538 216.414277601141 215.986500477133 214.372280823333 211.816494997241 206.70073324056 200.688160130104 192.567664703466 187.306418613879 183.566125986361 180.97121049938 182.706573620868 180.335472239763 176.151730921394 171.067714529217 168.661837607849 169.225906145116 169.97029676941 168.424700456089 167.108986666045 165.682662776482 163.931240352791 165.824042452542 167.024932051694 167.749751297551 166.430097501042 169.088573006609 173.974987412769 177.978463061352 175.950099328725 172.754495156262 172.550970592759 173.79309490784 174.716445906127 173.939076685077 173.56368771311 173.937238515022 172.627770642698 167.872964527309 167.082252573757 166.063852332844 165.282139750715 165.813066248767
378.621388027194 378.654245302278 377.984476711896 378.361254060663 377.447560212281 374.661479213525 372.859271195656 370.789975219983 369.803975365643 362.126056557242 357.613069666665 353.363143662388 347.285886382407 341.012140544766 335.573679317273 329.585460262327 324.785569448542 320.520291553569 317.787762998117 314.842398044377 314.239099003587 317.21800252824 322.700591697175 329.26237515226 334.372511026222 339.464250359686 343.375227035373 346.972207699168 349.17705133183 349.992945752132 350.981364149114 350.983975572885 351.274217472567 350.683216736195 350.989665076211 350.994017363691 350.984351764975 350.958661198605 349.436724260433 345.187447079736 341.617746453577 339.793369695308 336.496674797507 333.809516962261 332.60840523012 331.401812087959 329.888633915729 328.363416176088 325.393435423806 322.388196917953 319.275508261814 315.936024152556 313.192559673072 309.501301687057 301.523876598927 299.314657141316 299.229937108815 297.414506156765 297.061075486584 295.251999014893 292.274462106963 289.647703038385 280.697420486172 272.8200946175 272.102802146704 271.713661494631 271.407825565893 271.285045773642 269.296102364792 266.900546010514 262.951336828658 258.163584571516 254.837089647246 251.779649956466 247.802183577124 231.914723857969 216.957542084819 203.117983648188 195.650391446909 191.706696958149 190.469319032536 190.679250376203 181.481240898965 171.177229980419 170.300284639325 169.261624572396 194.560528813414 220.267426807867 249.874301831377 260.813438734261 265.141395992454 262.295156387153 261.47947858562 261.216877374295 262.290590875918 263.788808473162 264.609934576334 264.63044215764 264.631630543351 264.622397021884 264.607466345467 264.585868933111 263.980372130821 252.520382933318 226.875465575269 202.525703807185 187.625438359744 174.387833684508 169.124873574186 168.950884303641 167.533968883989 167.972844870559 168.968065307732 166.661281143225 164.611375188008 162.730745005248 160.922073638421 157.570679257876 150.691050073114 148.003849286546 144.175012452438 151.890185629824 158.672096513792 157.43890671364 152.920661066273 143.180664070365 143.511374352437 144.230559548549 143.072708219968 136.749304297567 136.869036680564 144.952027981204 153.294876712102 162.129667578014 164.95578302405 161.784146569401 157.587804351198 153.830652133714 145.514649888148 136.620405547954 131.568162955828 131.017328218162 131.101917997569 133.786414771048 133.263899177203 134.412909833804 133.400655850005 130.815624078552 127.669709585042 124.37477500325 123.437190755766 120.0597038255 119.310757112697 119.717557104336 118.71944224411 117.876875817247 117.514262971244 117.559473186325 116.877716282603 113.750000935398 113.563192738602 117.201174186877 118.441001244757 118.414663539412 118.277181807507 119.002670302139 118.921498773043 118.807396679576 118.457033729557 118.359831096591 117.937009864119 116.344759147597 116.144527872709 110.314775550655 110.126017483012 124.907124660848 146.153708768099 157.071648588067 165.881657288163 174.634513242471 185.371569792013 191.885498694174 193.357028455487 195.621924861023 197.256177665904 199.669328986659 202.04632853826 204.306489264317 207.115345614204 209.443349190532 210.721914109336 211.31212723129 209.487628278562 208.436798327729 203.788495615182 195.681926053328 190.14031399689 187.62674569248 185.032502220346 181.122015452244 178.594257100266 178.274863369975 172.675261324523 168.236009942027 160.422622677004 162.022327160396 160.522091333159 161.415446963218 159.788539400003 159.281365561629 154.336980459518 152.806254908205 153.542447870524 155.203534926962 157.613340959166 157.67829592087 159.1239615644 164.616152449949 167.059602854176 169.68372657823 166.74223590634 167.100479719512 167.067856612 163.159893843471 164.90702708769 165.299772207845 164.133513535833 162.035976609997 158.776215221454 156.8640157245 155.273439834537 154.290523307797 156.508312215895
369.530350349542 371.885951190763 371.093353168819 374.028767869983 372.580293747892 369.912930676073 368.668309118072 367.154332458325 365.027292301228 359.094307333592 353.988410087718 349.216302341086 345.185382546825 340.940682322372 333.814429630476 329.014876099587 324.218371883263 320.047143859374 316.911461306272 312.237136625553 310.476933848384 312.742885234864 318.379549845611 322.998049102113 327.791600506066 331.993649170406 337.929709726235 341.539762309522 344.540008209997 345.477309720846 346.67400052048 346.994380421781 348.270998352413 348.889480218818 349.211116296296 350.99454802315 351.594118759811 351.299880981923 350.992617917418 350.961339079956 347.878957628084 344.291345325139 340.699977551834 339.164640755722 337.645892629647 335.563305834171 332.623246296213 330.802676404895 328.385858962198 325.079798431745 321.764262474892 318.00075748055 313.406832310578 310.402103854629 310.539133207665 309.318017011012 306.953079913554 305.74699143705 301.892557143008 300.945506464578 296.477946681787 292.493472255501 289.092833500024 284.565434442708 281.853487414091 276.295775215745 272.373117891611 259.519978758889 254.512420577981 254.47361379109 252.214645927783 249.185098545309 246.050657791415 242.451795382521 236.788386778779 228.911006958443 219.339551339134 211.223914676838 202.167836059195 196.818064682557 193.203794752667 190.182814492723 187.751207638626 183.158675703719 178.880960731238 168.362872362994 182.941215254838 209.231744135037 239.108440113884 256.003667212081 260.8405297651 259.890736395914 258.870145295838 258.929973359247 260.91494447512 262.308674513224 264.579046100936 264.597185730791 264.598860480478 264.597616020956 264.598955807675 264.598823002268 264.513794001372 255.774943939629 239.607644947464 202.833851041083 187.124245486457 172.356928729174 167.088921163767 167.478532992641 166.710632622143 167.104578423337 165.352062563076 161.966745944719 160.170802557715 161.094994863541 160.939613585356 161.019400736428 156.670817460697 150.526251765234 138.804355095086 136.239549858423 149.205438092752 150.511157081417 143.215038530805 135.251383438959 133.873223949218 131.545956558408 128.320302646684 128.247926778333 128.247312357815 128.5328100784 138.817346295504 143.484088675296 141.706713607211 138.683077177615 135.049027531633 130.389264774099 126.039414597174 126.010297130572 123.060627098991 125.07493180919 130.906187248872 129.638481026891 128.392624154189 126.583225740717 125.323362216128 124.007253606287 120.741732319191 119.937987515776 116.36461353021 116.172782180442 115.99049505424 119.112201898551 118.757316481328 118.285809890404 121.691232760861 117.242386522985 114.120807528423 113.932872449996 117.465959385248 118.754637648381 118.545569656294 119.098710126139 122.410630887755 123.499771329459 122.998657090086 120.919101457546 118.4272060198 118.353584890832 118.098822773261 116.761112784505 116.885019427128 117.554509389622 109.939938447477 109.752385809691 125.648014541235 145.734258767863 155.998301852685 165.02970271244 171.699200397237 179.542320501144 184.225577173118 186.05525104173 188.399064658686 190.731268858764 191.262581654092 192.786140473056 193.334479299925 195.727740321612 196.983083843773 199.277202397556 198.523083681503 195.467416716897 191.787828358985 188.841985250673 186.467156056917 182.971199385025 179.501187076216 177.904801081292 170.590929972205 172.292208818476 168.235269015523 164.412787653676 157.622233442498 157.785631148678 155.229618022564 155.195678595147 155.914388791061 152.315476496614 149.404486272369 144.293821956404 143.524643823283 143.139879120725 145.328916469042 146.543237169557 149.392040292938 151.735937984429 155.619498156049 159.461247923876 161.55105393208 162.33722346592 160.601856131408 158.712523619404 155.581671375547 158.472787108966 157.674820597354 155.013163315323 152.524760525925 150.048685768721 148.252639075277 147.136722810815 145.563972717841
356.833190687462 359.455550844518 362.128020377969 367.418275633281 368.049675761756 365.98082212772 362.743095398293 360.645535339655 359.368727774795 354.602878118055 349.819133523243 346.39737617519 342.50390417414 338.009871462005 332.92350972947 328.412024033619 324.80444473872 321.190147917849 318.054867357966 313.054247548436 310.073776165309 309.227171466194 313.018069223596 316.901668872771 321.762045840954 324.504531403054 327.814338371754 331.411144479239 335.865289772623 339.723729405359 341.240085866905 342.180911616343 343.994959636713 346.373444933167 348.880191200512 350.976032647315 351.594444886114 352.190385651706 351.892843426028 350.999448270275 350.969985672353 347.882546058964 343.701583230203 341.588544083831 340.080181464019 338.86001223138 336.479558333217 333.486773350524 330.768130677163 326.254710526529 321.209268070628 318.984124181986 317.204294834965 315.981856207937 314.201347500246 313.27704271463 311.184206252034 309.950375163828 305.498117993412 302.208621201967 299.194529468567 296.778736171342 291.031209327989 288.284703393789 284.107748657608 279.026413553446 274.491286319327 266.704730554404 260.907960796828 249.522243736506 238.167400651123 229.726605519975 225.645122600649 222.92967200953 218.68881504065 215.342844146208 214.157824779722 211.633909959756 202.887464482177 198.654233447043 193.937389101098 189.769708340965 186.662590503064 183.502384584666 179.639182010064 167.654264857261 178.829115585831 198.666992786753 228.875702328565 251.733491019683 256.95855142768 257.228188076077 258.21905987459 259.348551963027 260.866770270167 261.695882964472 263.28058143039 264.582517051951 264.585506850893 264.087139386672 264.595522681792 264.599773078003 264.537672617829 258.832201080351 233.130393954826 197.297157190053 184.115555084031 171.237256066205 166.062369452526 166.391314097239 165.877874999949 164.77293085259 162.032675110124 160.48618677566 161.081105786114 159.279416173054 157.761581479845 159.254392831701 156.668238366263 152.802227124959 134.646914383698 128.468558030775 127.025751941219 142.623821016043 136.887969538969 130.200848076142 128.656224200088 127.547914640644 126.764772202246 127.500590588708 127.438481149448 127.669753413558 128.042969863966 128.175044259274 128.15161394764 128.168645640835 127.883723505131 127.250722423441 119.266106326918 119.073381130278 118.879029416126 118.68374517819 118.487369750549 118.289051217511 121.786538578912 121.685866195016 120.666180354376 120.682808412401 120.201661350462 116.744826323298 116.551618017994 119.965590722794 115.80233745723 118.608485885827 118.813950242274 118.763810608744 114.682244166278 114.494263146895 114.30484771787 117.598784501868 121.765142476441 125.77366889053 128.344393332886 126.168323590569 131.164907854267 128.324529772483 130.082293474047 125.878557707291 121.418122128786 118.849171291834 118.14543611946 118.139333801192 117.931174566013 117.937289497963 116.442821390238 109.567208995997 109.379787531354 125.143396292312 140.988602210773 150.228410659043 159.553361518205 166.88151061571 171.426109908606 176.305502969833 173.149355314828 175.417924414934 175.191643621736 172.810528960635 172.586700306182 174.445959171024 183.53170109966 188.775918933263 190.8302382078 186.791768001614 185.134587230334 183.391742749115 181.160513749323 177.485455163274 173.801165642348 170.444930202316 163.450182081355 165.142537503306 163.546666563381 159.832077083866 154.560365687071 150.358474829301 149.939562435017 148.9854819959 149.885555136185 146.68109342463 145.416687569955 142.328025192607 139.226107094479 135.516085645614 135.856783769045 136.136260132768 139.329114491034 141.264016648337 145.134648659693 150.65250713918 154.529558307426 155.577443311975 155.779541653516 154.216956853346 153.2979838752 152.313761369517 150.750810975077 149.23602476697 147.617234293259 145.518692464669 143.617274241388 141.822568882101 139.581973187026
351.641383886249 351.682821664619 353.463118711205 357.596042995915 362.302036075333 361.456459606401 359.669232067039 356.70427643211 354.007476170786 350.041333519802 346.437363198237 343.706294395112 340.401569376262 337.358191378576 332.296053797139 328.399488474483 325.069927033906 321.794451880661 319.215235784558 314.769603539999 310.368122370469 309.151813719315 309.151300009169 310.371460911108 314.204983303379 317.198773549325 320.292695721843 323.012802071772 326.02288715718 329.018880566417 330.87134706491 336.452892494752 339.765338893372 343.08554386343 346.682076996767 349.185623143441 350.986708614364 352.18739862384 351.894904533563 351.006159292828 350.982275853018 348.499131363852 346.090304991945 343.103823856457 341.900217459538 340.696740871159 338.589135537271 335.284376571729 330.803533275673 326.004183986453 320.277678605418 320.568661949012 320.904628545469 319.987627955911 318.383403045658 315.989637106668 313.595986981092 311.196811921672 308.199654817266 304.900604398514 301.326619285547 300.97359562282 297.37678670147 292.491076747317 287.666956635696 283.76964087922 278.114370528727 275.095675003528 272.031889626135 260.27813770543 253.058692811666 244.03075347857 235.241524203481 222.528602118566 213.385157981429 208.858695633097 202.342715282903 199.611189552752 197.648740379441 192.328171176598 189.434850883629 187.032972878509 181.828617218808 179.316750155278 180.716865021719 166.89473195353 177.103573171833 186.269798471064 215.521582401102 246.968031249747 257.198719505774 254.899765924719 256.457573250925 257.499555164957 258.799917023024 260.873929731102 261.204764073704 262.783409472755 262.011300898854 262.507646514056 264.585966010553 264.599021082587 264.52880932364 255.151032841906 227.388702089549 196.129940188398 182.232714738729 170.742862298054 166.006472603189 166.087471977647 165.103706537398 163.516972070011 162.179507261118 160.871630383407 161.071038929301 158.177786136302 155.355941213142 155.26865559197 153.988984205809 151.664557759274 146.676036965641 124.023975176731 123.583590166319 123.317065535948 123.08892762569 127.279287192439 122.086680041726 121.903423609872 121.723271781593 121.543768611792 121.369098962027 121.183502733709 125.513471172336 124.548648793148 124.200401578468 124.70406971468 119.844607052722 119.651032439155 119.456265435449 125.995176172084 126.423835980996 123.736069646623 121.4450618029 118.09854412708 117.906411846388 117.713167180973 117.519399974039 117.325300721428 117.130163382428 116.93516769184 120.795985467833 118.239750004348 115.611036102852 115.421475027286 115.24098444942 115.053543280972 114.865369713182 120.053375383659 120.467775867955 128.176696560125 140.295208607393 152.322465428805 154.967939165293 155.970678144049 153.12604353596 145.622017800069 135.711867295708 128.300594279734 125.915849052401 122.731972583238 121.130497024108 119.044998456229 118.173815815969 118.139717601656 117.738473248308 117.420025278102 109.194990067186 109.007514170606 117.303474645893 131.161370932648 145.94122624702 156.675329847054 160.838801753222 166.258691503394 162.75460228855 162.010390486168 164.061299299129 164.683448739342 165.182746280932 167.764820791923 173.043506712676 179.835814719669 183.315370164319 182.000701483632 180.764614352089 177.516008760801 174.619516279346 171.88347637551 167.985163362666 163.868023003952 157.973624819388 157.309014049279 157.975723843648 154.156961261686 149.159501200823 143.939031347836 141.499723006041 141.976685140973 140.979747668567 138.931557482842 138.463450459296 136.570788398761 133.520569421648 130.311961865392 128.944191364952 130.555541957373 131.778256836994 132.847741154402 136.120376945564 140.863955585911 145.70227855316 148.614263229812 151.446178356886 150.882357456738 149.617354116206 148.990087638614 147.025408961217 145.331423679233 144.282930361777 141.626673060399 139.732799921465 138.127493503929 136.638924995354
349.210670448922 348.152690156718 347.331889264902 348.910497964852 352.151476175366 354.79984404855 356.278061540838 352.773010149467 350.957807874179 347.892152845237 344.902064063197 342.182577191603 338.585806077049 334.694759320244 331.093348310967 327.487311520943 324.195731041824 321.193538896079 318.36586703926 315.047135853369 310.941559123085 310.877340776613 308.990098170183 307.629408463952 307.946675853476 310.035694859101 312.728350206322 316.008389550842 319.005552433653 321.240342896419 325.122381008989 328.750058376173 333.80418017894 340.051619801465 343.972028836743 346.689573983993 349.780082846975 350.995298368515 351.889659346251 351.298112294328 350.983578479588 349.47718298044 346.698315547298 344.598267475299 344.264194800019 342.776982501935 340.385676206874 337.059933330712 331.167206120025 329.000198974489 328.350444399473 326.874082717669 325.670640258851 323.589488498477 320.897547153372 317.811028259002 315.401378131071 313.304743806382 311.190300159674 309.088941031852 305.79562577033 303.087634139647 299.475989616209 294.397181584143 289.508996476758 285.584775013755 282.273356288175 277.813492767332 275.976189677654 272.046873470153 264.483880407875 259.935555461363 250.069622614995 238.384350588766 229.245052120521 217.828952254221 211.771850413285 205.109341197807 201.212246446685 200.517542938477 191.888675525935 188.193217248812 182.145140170627 174.66935789383 170.009139136896 166.341183724546 165.452089474246 182.518945796123 201.214485531183 233.03625829502 251.296141622237 251.706645898131 254.07351491815 256.173039732775 257.009936337095 258.304551123017 259.595647194781 260.872319893877 260.879682258415 260.910945082562 264.06340744839 264.582051233712 264.505969084039 249.716864004107 218.598258181453 197.827710510801 183.551871270063 172.766681283522 166.048325908407 165.849758845568 164.799468206188 163.185472476803 161.123362064169 159.076931281949 158.434252017716 156.394013538379 153.65716808109 151.419421803893 150.153580601528 151.057734595367 146.036740216708 123.221337328229 123.044304610502 122.866057494365 122.662200952822 122.4652066341 122.273818084156 126.130335474169 125.107242034705 125.102436385483 125.940151257242 120.997203810468 120.807428409368 120.616152857663 120.42406743422 120.230864681882 120.037703612694 127.920265741542 126.154968621652 128.000109520815 126.672096418612 125.112766724681 116.670975027387 122.898557060819 120.017121494976 119.538851242524 121.147722016807 118.645837423207 117.142348739739 122.009157232996 122.968757173854 120.843315113496 120.921368649176 120.929501844978 115.253475804001 120.006177495245 122.678448324587 129.689010334978 140.284789251963 152.570484918818 161.613578394533 168.713374398674 173.688608292096 176.28097614967 175.775585424459 168.929138029209 160.808495243836 142.46717595069 130.990815723971 129.768721429816 127.362674729373 124.500579643374 119.076300542776 118.24383870921 118.001624150516 117.903953107109 117.844726293314 108.823003438497 108.635344531902 114.875072462057 122.334998866617 136.033020475274 145.154890350523 157.29090500625 151.777426103634 152.195059314317 157.394180468799 160.923240120789 159.033566731377 160.932803821228 165.587468683446 169.064055899674 175.319477652014 177.612080425515 175.768423691931 172.878946826914 169.385174452667 166.437452079972 161.582090567261 157.65492021601 153.234590818353 150.460405111967 151.639993271053 147.699208479312 141.437051735361 137.415521751349 136.182070849934 134.082361173902 133.122675990815 131.366090357768 131.118133245716 129.853123819919 129.040463097867 128.38067311206 125.472524940719 127.397763549542 128.028669432273 130.186691677579 132.499818740535 134.097362302396 139.091315802515 142.779881200216 147.014048637789 146.546668065845 147.014080921186 145.91943182068 144.695592113064 142.988962137632 140.817274835803 138.738714140721 137.32747001159 136.022161917454 134.088771531484
349.131091060011 346.730481088567 342.916158744156 340.481984818503 341.114186596849 341.735238537534 346.057114316318 348.18183252638 346.051308359596 345.147048111801 343.349733121993 340.920383927856 336.164013100154 331.989875286818 328.964240146456 325.673663838671 322.685388868727 320.836240717854 316.281159248309 312.440356007052 310.893357528468 309.046609636364 307.55261647635 305.522285037956 304.336571421881 305.236538637695 307.611088527687 310.016930984662 313.002633851876 316.293889161975 319.997229643477 324.481832238965 328.706627995232 334.682209548803 340.071508860469 343.983822195985 347.279779362443 350.967902226248 350.991736964999 350.993619368374 350.979910690823 348.881259068947 346.417792595436 345.784425424599 345.174771706124 343.686510346254 341.573165043903 339.105313922132 333.301602448504 332.348667170599 333.460068109672 331.386967669169 328.997142100415 326.883936230142 323.309469069263 320.01435755849 317.50646501156 316.28785423423 312.6909344672 310.860009824459 307.287752183255 303.694625486414 300.383976940219 295.883765755764 291.29214001972 287.391846820496 283.774263579119 279.902843922272 276.609396400231 273.608367751593 270.278872081791 265.988016189338 261.753390095576 255.430239326466 244.673884836425 232.330274809148 224.233820892203 222.355971262206 218.998844233339 207.564468761166 195.315816094834 188.423033552827 183.969171887738 185.286070042545 182.028897519511 176.199986511038 164.858459882247 184.74668412326 188.894204663449 224.222036208443 242.242003655078 248.908723791015 251.693652969308 254.561620806214 255.692668092821 257.001228715011 257.801555654737 257.53229969563 258.034790968639 259.408573597727 260.905905304736 262.4800808541 260.81832509713 247.37493358633 218.553855719685 199.655285978305 188.014881851816 176.452410891823 168.86611887139 166.136254298875 163.785856644219 162.999426428208 161.651879336783 159.284109563497 156.927656620649 154.329910521869 151.730204201212 149.165152789695 151.034663274529 149.327611720575 143.047484524138 123.399121042325 125.314631789348 125.775774480628 125.469458413539 129.098778304645 129.203675376142 130.071422604345 130.286465242465 129.025168911458 127.828660846035 126.407586570524 125.800539901128 124.737969209966 128.511002287212 128.367694038682 129.00974095399 129.089274892385 130.157604187411 129.144042134717 130.631348760841 130.862938634915 129.46224211733 128.995194013386 129.714397308617 125.950617503482 122.682052642016 121.466398372896 121.431480428427 122.194103997371 122.212028748738 122.22038577475 120.310858567248 119.40484996115 127.404112798971 144.101533031778 147.148464109377 151.882126954742 158.773804907356 167.446324739026 180.242930511899 182.937614611266 183.04465219214 187.989962040961 192.407086003115 190.012179378535 179.530616494717 166.624882137667 147.250306777483 131.776262927905 132.991071940766 131.034159671634 123.979589281938 121.077242446 118.05341305088 118.005767621148 117.891148262319 117.942236763641 108.450832948895 108.262106708325 114.791403354804 115.656255611144 119.37504418215 130.207189169092 133.753898780853 139.979217250094 149.703370662881 152.428652695219 151.978584156639 154.060336890095 158.200538585151 161.444021371995 166.101404295928 170.2359993258 170.824384492776 167.745170051957 163.560192205273 159.080202918662 154.395033218229 149.982868578926 146.912065930902 141.825400890365 141.995245972183 137.923580864774 134.045707580444 132.988279739431 131.338654513408 128.37166499588 126.870354063642 125.830421207846 125.382065379989 125.680077131764 126.368609747141 125.960193124777 125.388549555986 124.59115140704 124.956906209986 126.072165206548 129.280237874423 129.940062134576 134.083771038552 135.409978358784 139.418902581773 145.954252364252 146.039836020465 144.114865978741 142.429492931272 139.981398823048 138.941050742956 137.155563564046 136.036711836874 135.214427318993 134.388704681444
349.193487800743 345.567555714812 341.781139121289 340.026168983254 338.239493366295 336.442659231085 335.991220553962 337.429337856042 338.28281311464 339.412831413423 339.097701215174 336.41060246921 331.946225192374 328.350166409085 324.510530456562 322.012242151248 319.993978575819 317.770575044062 314.193355182268 310.351203706363 309.085279591097 307.590280279486 305.81183191027 303.727096203493 302.273237060341 302.200375407053 303.130425677891 305.209814199476 307.610583143052 310.334643039149 314.520717378284 320.254981835575 323.044998895728 329.297533218291 335.864179032404 340.088917715368 344.588584871104 348.47345359565 349.784893769419 349.801418621316 349.984459970674 347.322680090546 346.703251511332 346.102528300663 345.210141316272 343.706975637257 341.323547139949 339.235064972263 338.56239814545 337.685587401127 337.369300622271 335.283794006296 332.306283133175 330.19124508825 327.492931506569 323.903031094199 320.904633990419 318.390880394631 313.604500609287 309.121187284585 306.700044921675 303.695474691533 300.382884762825 296.469986403017 291.295708269003 287.986779820485 284.400339763342 281.091531815952 278.096067415452 275.383702769888 272.385957848095 268.200620208711 265.75197924393 259.678567667475 254.520459094016 245.591318983283 240.715231454682 231.360501465887 223.247354846241 209.777189415016 197.724426136089 189.642370103855 186.336399155618 186.573925746391 181.516245413643 179.851112925282 164.353471841562 181.014362112185 189.653641292759 210.759174385349 230.880578997533 244.936265266248 250.753777501161 251.497527164045 254.079880321771 256.673826562385 256.704241569916 256.723667817389 257.515010778726 258.314845617263 259.406086796438 260.873281272697 257.145008339159 246.08286720821 220.167858027206 202.749577587741 192.634146184037 181.406750567304 172.210022490299 166.131339476332 163.05531572631 162.503688088666 161.698186072523 159.573708445201 156.872730256373 153.861775359463 151.434752610122 149.185057249097 149.251882398775 140.960002812253 126.78190118023 123.580150363587 126.020068061267 128.871428125088 129.155555554692 129.210552622305 131.944555613316 134.031196551264 135.620001302992 135.904772240525 131.984397232312 129.122943993314 129.039277636575 129.026003712182 130.152627855773 133.185901582478 134.023896679341 136.079688263219 138.883986067739 137.907951049579 136.375546060593 136.579047015568 136.393529624345 135.893601198951 134.781449888909 131.623073200629 129.326632006005 128.48323488644 125.42237374694 122.696519913963 122.533134875619 124.798259700541 129.243881090063 135.312780471645 150.164540548357 156.892595839759 168.62444870226 173.61502283404 176.016133282102 180.440547760605 186.539327609738 195.18277615886 196.863177199459 204.160800871313 205.167081869626 201.238133278655 188.02017529287 175.106508680702 163.72922419564 146.910879678833 137.722292873511 131.90968511342 126.398294311642 121.16177845046 118.114548592774 118.019829088728 118.008082639902 117.984569673668 117.153722986308 108.080655454263 107.893698365239 107.704335174953 112.038336441232 119.39450886125 124.676138929461 134.275983869087 140.880905744494 145.002459656339 144.912383997129 149.246802370202 151.180168298437 156.171454184088 157.580869952256 162.372666563062 163.568385010427 160.983291510194 156.2140336972 151.897534899909 146.997100722348 141.836616651334 138.304968235841 133.349482618093 131.277739535616 128.332018502997 127.479260158465 124.467378402859 123.596558747277 121.757413734448 119.644416533888 116.08003863483 115.773377074879 111.88421127043 109.032504609857 105.961312224691 107.594576004009 109.038012858003 115.971493746293 121.197221510768 122.08964172532 120.515548886436 123.634655615286 127.204598002469 131.312978684278 136.019910578277 141.477458338548 146.037085998467 142.775759247636 139.93363441006 139.651452075652 137.694040351028 136.018388587437 135.393113030931 133.999235357256
349.803224785758 346.356728921726 342.785675493337 340.324064387868 337.675994226936 333.332184708072 331.409991718057 330.522852048219 329.338658820902 329.050101478344 328.967067312978 327.377134740483 323.771638950498 322.259010036788 319.899448522649 319.00265915784 316.821812585559 314.45272836785 311.508873087213 309.128984619285 308.110212678387 306.411281689797 304.283165388779 302.256538315292 300.849579859265 300.375760697305 300.110879993323 300.754680079952 302.265152956378 305.802657406453 309.717437763488 315.077922623169 319.013229810283 324.501875514078 330.199233992272 336.479061100465 341.880509424151 345.779561081838 347.591079345869 349.18513476777 349.479937196185 347.315361149904 347.293830765597 346.996466388161 346.388860196194 344.885934262605 343.096669005083 341.32940247823 341.873478632026 341.286014912049 340.965271003733 338.567557376804 336.18346725186 333.805243426531 331.096468846585 328.093650966748 324.495155861791 320.482173663006 315.398109318259 310.015000343628 306.102043188416 302.802844734321 299.774272590453 294.68774364974 289.244569872926 287.689684573842 285.279570427352 281.997913735476 278.995921467779 276.000805855309 272.979649373804 268.817630230147 265.49165596065 261.480929051846 256.070383019671 250.046726377311 241.392322397418 231.995809722482 222.668247489034 210.697982322059 199.514316846576 192.330526215383 189.301221441869 186.620854918641 183.023348525084 180.75815890977 163.833717683207 162.91632969905 181.850537407353 193.009209553486 216.802829456311 234.465125149512 245.55190676331 247.726835757209 252.20054015668 255.083379280038 256.658380160913 256.700514313623 259.866142859946 258.603459443276 258.321157502721 259.872361138667 255.650282438878 245.772672392523 223.041451430502 206.996503768028 195.522125071575 184.698964783848 173.052471071947 166.162488143459 163.246822807462 162.500688748799 161.837692817187 159.833606088289 157.193672242464 154.775080618428 152.229389852231 150.209296325411 148.716280969706 141.457789135111 125.822002214442 123.758593969937 129.613684805428 129.903268146291 132.453065772564 137.965488704459 138.071072147168 141.43472316261 143.811075247702 145.563428964003 150.939988978009 138.767117122044 134.345941551839 131.781721255904 133.865092199513 138.135467617504 141.031145815362 141.862119610032 142.670906060524 141.438263363155 140.211690332918 142.683171901817 143.185522222505 143.151163713323 140.610883247356 138.565739597251 136.746686005781 135.055997814048 135.447284343495 133.41945351185 133.297037915591 138.365782917563 154.702097674008 158.591190362377 166.653006776043 173.169915689062 178.257677745521 182.705374104045 184.008224537227 196.750003227185 211.648272798915 228.128988466281 238.392400212808 239.921102101972 236.545450545776 229.908222236184 206.211015890265 184.343734529447 171.881421058351 156.405934513818 142.495107405309 134.822094456672 127.802053363232 124.549675798404 119.235221887037 118.111928527894 118.025020204102 117.999398073758 117.769859369189 116.261521314812 110.801589905982 107.517981614458 107.329695582669 114.667764273144 121.168222761697 128.960551886667 133.04962479354 137.379214576494 139.119125138977 143.204200967917 147.159893713529 151.418817456888 152.134505099541 155.204811734396 158.034425094383 154.974566346361 149.807611832716 145.116112826925 140.583238286742 133.488918436098 131.752857553756 129.114484065722 127.145364377276 125.581729412269 124.182813783905 120.205363742512 117.052391724927 114.017231982716 111.888436134708 106.677900581675 104.929135944486 104.99955434492 98.6804250798831 98.4923926260978 98.3003777743212 98.105687281333 97.9079451838984 105.974167695706 111.197259347298 113.943899630283 115.970216118182 118.333692368863 124.047742593339 129.139813324024 133.779486720789 143.119627493998 142.36248273137 140.754752101332 139.583339768841 137.264495899209 135.803752744041 137.073400561461 135.139539457543
350.702677995704 345.820255663598 342.178346721051 339.989663089843 336.268729067923 330.735873465509 329.482480795769 329.09960240983 328.577240715011 328.008942617103 327.179815854003 322.215286904412 319.899494219362 319.519010470389 318.801302652499 317.802989787729 315.195961394332 312.063686102405 310.393398686295 308.954321202518 307.729911299792 306.49868095626 304.353537849158 302.189268590148 300.354974069278 299.649859096365 299.222312865755 299.070764716438 299.213506085862 300.779342616983 304.935041635949 310.575138836906 315.097344746157 319.625489925288 325.708779087732 332.003198101869 339.455725551423 342.792485688501 345.790766288335 347.593873119073 348.293381356841 347.608655321222 347.898039394633 347.893796437786 347.29479120936 346.391190053398 344.900962740181 343.720547293898 344.282202495733 343.977106978235 341.908578138933 340.404305192751 339.487373218271 337.386732685325 333.791159043981 330.490617783449 326.593161413865 321.810661106238 317.494567229208 311.250867378999 307.583047102933 301.027130872107 298.269670922797 292.330858114072 288.918116164429 286.506247753818 284.986643883241 282.585165783512 280.738958359796 276.578069261361 272.976525024649 269.076837235334 265.767988773025 261.456619888178 255.478803675287 249.454944403 241.645573123197 231.673953923671 220.895943454941 210.414388511555 200.444616041029 194.428184135758 191.396889862182 188.96045462082 185.095575743299 182.297684009915 179.07344973269 162.327796303664 171.314616756944 179.740749174642 196.270557177179 213.691393781457 223.578324028126 243.061705303532 254.486485590452 252.861457808812 255.354479665497 255.678404943273 259.839414908604 258.254346474645 259.863230368741 259.849138888537 254.345276553536 245.283768124303 226.895418035026 205.632899113732 193.767325185865 182.683715897958 173.056768929864 167.23966289824 164.039122342859 163.005684108774 162.138461818265 160.076788217424 157.761404601205 155.340390901776 154.527689001353 153.467934264172 149.974475940219 134.600767725242 124.105997026652 123.936588636591 126.926355884058 132.749309232064 139.825055246783 146.87396361536 149.034442908866 154.723594064808 155.249318236184 154.00112671815 152.675465960569 146.883697341616 141.40161489979 139.02021505215 139.80231627477 140.965105473014 144.018152077222 145.345373455098 146.442963623297 147.707006239649 148.207937297612 148.52866611242 150.547068583366 148.569720051321 146.879251412746 149.896336871025 153.495632282349 154.796411658629 156.213539123314 148.058274834185 156.473699006216 158.737245032652 160.284596311552 168.499377563648 172.728753799746 176.259613084422 184.75623863566 193.450992327832 207.472560340732 218.787087940986 238.124244496913 247.095006768581 251.911202303973 248.759289310819 244.25555057605 235.804454776991 221.30211177281 200.875292669193 179.354797705239 166.669420847187 151.713726800432 137.851453395325 135.272702169881 130.269920276526 128.782631411696 120.492981572792 119.09662797201 118.072095167389 118.008924530532 117.553120531842 110.600082744751 110.344614586607 107.142630961957 111.298536095391 120.955286271738 123.475224244878 126.482385061593 132.297323232198 135.266590348615 139.516616952624 140.370592761613 144.096483618474 147.735904127747 149.204649507371 152.443440574541 149.398973384919 143.93722668045 139.530884046692 135.221206859632 129.168573547673 127.275921252292 127.269594852007 121.514334628834 120.197103935577 104.677620195204 120.497750517321 107.199088298136 102.925143206209 104.395609634147 99.4396891077028 99.2480136066902 99.0557542711456 98.8718440556856 105.647463793344 105.769154851467 105.584154427037 97.7178105676171 97.5251031242049 97.3317261434039 103.005318285948 107.718621263462 110.05616719699 113.871560170331 120.399252838767 125.735611321048 134.972310098693 140.927390548611 136.403777884831 136.304700109288 134.462488605603 134.474945032619 136.369939097589 135.983641380233
351.222301762349 345.603658578534 340.318426442764 339.293258715481 338.492928808758 333.582759655388 330.363861343493 329.940241199885 329.873047363293 328.938515566852 327.265618411182 324.044210486591 321.357620936381 319.892070559732 319.829370503533 318.280167696474 315.094876917011 311.674118836614 309.736906563058 308.993714104073 307.974304474694 306.633504707262 304.448864135208 302.366460314883 299.981490654948 299.443423632899 299.054491449425 298.792887134681 298.630893185043 298.501806366262 301.065279382721 306.112256423888 310.624262434839 316.301955686647 322.395047620744 328.132151517472 335.577239945122 340.97751671336 344.290157985651 346.398730342383 347.892052008235 347.910898464753 348.890201918154 348.503850243362 348.491047541378 347.604911927094 346.998527067287 346.396884777549 346.091888766247 345.48805887946 344.001881132982 343.086911861705 341.008369051301 339.18289393712 335.890641364944 331.987356550505 328.083397245068 323.891967547698 320.859616724593 316.540505467792 310.247333171302 299.326449154797 296.228297398036 291.087085965368 288.623506548614 285.91457825149 283.79580723561 281.689074994182 279.270389279487 275.975168925899 272.607885808726 266.011743745575 264.403140915737 259.626275029877 252.495344495153 246.731420279474 238.304705226528 227.78147432815 220.272764277745 210.699392788869 202.501212935946 197.069222228089 192.57245905905 188.986070742769 185.630421362765 182.421821333977 180.690965855432 161.59107366706 161.102779292932 172.295685553014 180.805744954298 189.680447212321 208.49788932378 233.295112230684 254.366877621529 254.462774943639 251.956719151467 252.288924426767 253.568255590938 252.320982706135 256.486422507078 255.242609611947 252.622555774965 244.039781656322 222.673886167603 200.460315895646 189.10234609456 179.631395919122 173.513901955568 168.508454481609 165.411545979654 163.800361939249 162.6732244805 160.560709855381 158.496139894564 156.923117114377 155.910909014382 153.934846441869 152.144297966582 136.985428443991 124.280746022314 130.525844909709 131.15223141933 136.506146699263 148.810264753483 157.960995424059 164.237252576632 163.830927894276 164.58592822803 162.479944198009 159.26620162742 153.783870676253 146.998531050395 144.867871514338 145.323832824273 146.916916603119 149.320570317862 151.913628583719 153.525651415067 154.373359071028 157.459868868275 155.959116956936 155.255489377349 161.055857129926 161.97764319478 170.767313584163 171.710695729482 173.862675686569 176.532169713443 168.367984571244 172.594468742534 174.17626448176 176.110199430632 181.954634545445 179.397875585729 190.3160559067 208.246188847098 219.235902903358 229.524274236053 242.360262653494 250.821654022748 256.931248996479 257.141352117421 251.476213154319 246.463322727024 238.275975814138 227.7195336656 210.593399516819 192.19180258659 173.411370784292 159.645651497775 148.50023793774 140.129018689967 134.391754574431 131.425589010992 128.977313249565 127.314212424197 121.162018196876 119.049335188347 117.18474724545 112.099361894886 110.257707750454 106.960766255919 106.775568566914 110.618375471412 118.17243954037 121.17423769353 126.523892838607 129.772961639843 133.452333210876 135.872369838008 138.639789086974 139.709912119887 142.79710759602 148.115460183279 146.05499278837 140.589736040077 135.036853518791 132.413009696466 129.052123597613 123.953192177952 121.728183197988 107.937816808076 101.81960593151 100.597117629982 100.406792476556 100.212421379459 100.015748685639 99.8178039176184 99.6299347225957 102.823177998123 102.474980950087 105.521953544508 105.743466462103 105.740219758828 105.64636444956 105.430177427131 101.613675777563 97.1377909400323 100.497360203103 102.859702092685 102.490605409981 106.017499290283 114.01004369541 119.382472389431 132.435807331454 135.340969087074 131.849949221666 129.683243570306 125.405800934766 126.924148680131 133.927076157902 135.970972450667
349.100566896779 340.848706458977 341.229877129892 341.995266748756 341.619297252932 339.48588473644 336.796292172603 335.004323264177 333.505357326159 331.432121718798 330.197112318344 328.663079868971 325.989898949451 323.626597106905 322.405847111076 320.511256851598 318.070935973994 315.081471059023 312.106711661373 310.645990284231 310.864734542094 308.494838480759 305.487316356409 302.29780337362 299.739520309087 299.366308970698 299.008096169361 298.741195811955 298.609098620961 298.588098781875 299.404986938696 302.829077066172 307.614438484827 312.731081442239 319.311560104056 326.007601672676 332.893362506545 339.182004903287 343.386962023029 346.099974415791 347.899290939606 348.50937149759 349.491524563325 349.496933850016 349.495409314459 349.491585306437 349.190340418538 348.495423089378 347.606467267194 347.001404006989 346.102689314899 345.490588970318 343.396694585775 340.397118522644 337.37929616963 332.604600574259 328.106665542485 324.200769213878 320.883441201183 317.738024085867 311.159353968819 303.992121348032 298.276973314301 293.502892285089 289.520056087501 285.92696247702 283.190511072347 279.050881441584 277.198328480526 273.883182423802 269.052434327931 261.216661531093 256.921788523837 253.59654362742 250.804875921932 240.634585267813 226.701987842768 220.939723833529 218.107916082356 211.4622758535 201.789373217985 194.962296946911 190.228031721602 188.877106015698 184.231537534938 180.608315818039 177.83478431954 170.679718582864 160.479941178177 159.774033514964 171.407368388157 181.003509484419 193.431467853589 210.954313799433 226.249228464698 242.894046755761 240.36346194534 234.893671818562 231.923017124699 230.340269244182 229.547874364993 230.643094875139 232.87752827161 229.415776994649 211.333914539028 192.605261400495 183.846892708396 176.770140961059 173.015152323653 169.311357772508 166.119317923759 164.316289852525 163.187105321762 161.110590459938 159.038425296061 158.42311773001 156.717632331037 155.122710317861 152.098206593857 141.58867409643 124.456311754219 127.394750614044 135.14266420017 146.152617534324 162.916998536471 168.488003679331 176.824588588779 182.578559771329 176.378736484012 170.39795067196 166.095197430565 160.921888756842 155.651570656096 151.798975809407 151.72590071503 152.552749581592 156.909387194958 159.843873636956 163.19768761607 164.839934339447 167.224480761191 166.515055447421 165.853814031873 173.854777355524 180.673730725401 185.555200334376 189.824433906096 199.927227860546 197.370540184549 192.355530414049 198.152823688158 201.883108621879 200.856667819849 202.178843667331 214.378719666694 223.136236205902 232.3450179687 242.628539382309 247.412088117455 252.75763484216 257.470266979804 259.569548792753 257.773823521507 252.191474872426 246.974429429209 240.089124889178 232.933422110239 219.849750730879 206.657970454062 190.076684484324 167.06445812509 156.004555625687 146.716419837902 140.167817186567 136.434664959959 134.468138930023 130.573019914456 127.327626925414 121.938148441868 119.502539894728 115.908660166471 111.89120628443 109.863767173482 106.588250223072 110.000828308849 113.718592110936 117.216388583107 119.404360332607 122.771795854232 127.363015530647 130.516080756607 129.842854967761 132.481603953792 135.78747678283 140.936521890187 142.322649101828 137.639146998794 132.004622934112 126.334463887527 120.301847528324 112.61966255566 101.351968760964 101.166683068962 100.977614421087 100.790682164447 103.649025765195 103.598157676875 106.164027549653 110.197448260051 109.192839520699 107.836975571286 109.320348214409 111.363894096121 119.40408327094 121.263172538564 119.735181071183 109.846832731851 106.85543987898 96.9491205880393 96.7584064655143 100.519434858783 102.104232313356 103.10713758286 110.684662683872 118.52697704397 130.621821986301 129.961412172283 123.454543986469 119.083292206208 118.086989465005 119.054953883298 127.986757370471 133.788396233623
354.318274217141 353.363156403415 352.115239414033 349.942143185185 347.274846030981 344.586464746578 342.186470229214 340.367601409295 337.699863691746 335.31005134664 333.216900269958 331.701057835714 329.892182043156 327.515470288776 325.713581090901 323.903423710071 321.777296392689 318.6991576075 316.033622916415 314.794258617069 312.437015545583 310.302144032869 307.577171386825 303.990824754311 301.316786772461 300.006600659322 298.98776529304 298.685811479398 298.544346924189 298.439918614733 298.43623851032 300.445222937026 305.209850329754 310.625230114419 317.806657676254 323.942969141975 331.126346386738 338.581064168567 343.096896703956 346.687833390025 348.887893748563 349.796270666014 350.396575425465 350.023684511332 350.417739639125 351.005336219873 351.001095646698 350.40328478855 349.800400350488 349.197403473826 348.495721505353 347.595061143377 345.189644040629 342.19232160701 338.578719324468 333.49815993954 328.999405095033 324.210336990228 319.055101390629 316.004798729976 310.317890597121 305.758445869481 300.07455673656 295.260274082408 290.970035138767 286.795022139253 283.17897326624 278.989698163594 275.664622833108 272.069996040458 265.793091393697 256.779368575931 245.010849855535 238.658243598118 236.19134579789 228.13773514073 218.827933933369 214.857814074422 212.642424309225 197.736145920774 189.329181200759 189.041002718802 188.898043646763 187.428926228146 182.0939147668 177.934801184627 171.93008168195 170.943886675721 170.476584232699 158.901870331502 159.347146209519 174.317090231406 187.449348968488 198.005893245827 212.842280002288 215.330250912574 211.511808083884 208.928689480923 207.535097970872 203.636495621941 202.348132378222 203.445971917356 207.260152991844 206.403040960748 197.045454842089 187.25285030563 180.922961432739 176.706179061764 172.995059705085 170.094884941129 167.222323560167 165.41146789545 163.809125772172 162.479484823184 161.062788356018 159.5335236112 156.910975084189 155.61012134017 153.189264775192 145.989063560044 124.630718789283 127.680596912202 139.842756466475 157.671830485978 173.211418825195 180.357206193101 185.093832513575 194.231891679101 193.696163937148 178.351292553848 174.592021780398 170.380055377104 166.082629554748 162.504577724879 159.119554592453 157.790291009312 166.392085621104 171.054417654917 174.734407418414 176.124594935042 182.077924463936 184.940971624869 185.10774781247 194.032291956403 205.025822030093 222.151529518908 224.800208214277 224.586597441534 218.224087239781 213.468498220475 223.40943681193 228.189479899063 224.355007732263 219.897030602653 232.7128792318 242.062285389639 245.838965420532 250.083181211881 256.461872224467 260.851099685496 261.473288830884 260.87575191018 257.479187922771 252.496916607091 247.48392101436 241.491990499971 235.851860599476 227.889119661964 217.902837560353 205.275642558449 190.546604643572 168.375987635991 153.459658700702 146.80341771654 141.91614593908 137.402738110279 133.21148626232 129.323096846294 125.906180216102 123.731290893573 118.778350593778 114.244594497941 109.795666173668 106.407323642776 109.673603775274 110.925959749221 113.724092531305 115.92459802551 118.509227976297 120.624228155205 122.940398396328 122.227300130737 123.648163899329 128.185639894462 132.264663767789 135.10766557466 132.205035485281 124.975470512947 102.091401494303 101.902917041591 101.715171629009 101.529141747346 123.068816421981 129.412089963678 126.211096181749 117.871101826247 112.962675209806 119.515294060652 130.555081125192 116.803599903645 111.37230838303 144.498586245326 154.689294379424 152.643868476497 146.140391169849 143.41974957887 140.184228430276 134.053931534684 126.521000280339 96.5690914580342 96.3773647675745 100.244060348465 103.10296400617 109.075490300465 119.929728913538 131.010489977822 124.48339146946 118.688242672243 116.737267906968 115.039579369306 115.47843230494 124.875266815158 135.936228776396
364.182320316712 362.366436148703 359.386490440191 355.538974785103 352.526888133802 348.974502342519 346.741731469424 344.339788940905 342.219829136015 339.529374746509 336.852850221144 335.330634691733 333.814296452057 331.727468134524 330.194782713637 327.800407244253 324.825805366331 322.415123331343 320.49809372189 318.96259371663 316.273034137893 312.411850273588 308.528741454948 305.229791424735 302.797883498907 301.013545548025 300.111521840402 299.073083252461 298.513081934831 298.362063680694 298.387802090455 299.195653964956 302.567553852766 309.14868111956 317.496404109842 324.806218706756 332.304390637962 339.770219129287 344.284676641039 347.308576731701 349.799440081372 350.714120944734 351.903979383309 352.216891062891 353.104284193142 353.698777827157 353.695647047805 352.80709131351 352.204387821391 351.600121603678 350.699476255631 349.789353811353 346.98819856199 343.391700018312 339.199491989236 334.40626368615 329.901513845243 325.406398704614 321.194013853001 316.857885362882 310.866675190295 303.125492986303 299.763542067215 294.964924457561 290.658757576559 286.464205005431 281.984062330207 277.783563819326 273.009245532659 269.390824974576 264.896706421129 259.332381651973 250.893991942236 237.141321720196 227.82095812592 219.305728855209 209.512781801435 204.261286810894 200.552271265779 195.481932775434 189.4176906289 188.991768787013 184.556127074238 180.187846696352 178.178333725264 172.444556304982 170.466263816098 168.815414794023 158.878613418301 157.885773537987 158.715292112248 168.973404015809 181.566836532828 185.430577680649 189.217023421927 191.078505157219 190.81228139408 189.780368167042 186.662235799667 187.622633694042 187.824955511985 192.494793519773 194.581461993679 194.06383382679 188.511556880759 183.300755532304 178.510617898508 175.399013807043 172.697157764042 170.10185339582 168.761202245757 166.898081746372 165.37245194056 163.005961611588 160.65799309689 161.078348737838 157.713985976598 156.697885548379 153.829740283922 142.580865250654 124.803548855497 130.607344567609 145.126004166585 166.814624555957 179.291059816536 188.760422886812 194.095800013999 202.922176995301 200.040044278041 189.589597960212 183.523038024012 178.864047538234 175.641049237188 172.271290123332 172.721686327417 176.352799316977 180.295443291781 179.053573358737 183.461087960263 188.7227163347 191.091314590458 195.080066890964 200.37395842828 210.505699510292 226.823621789512 233.205559459294 235.322333653952 233.536068485734 227.877321312183 229.24135104281 230.729254921943 236.303756744662 233.590831315913 231.038456807573 243.225525593555 248.784322505868 252.216643553961 259.355120371599 262.463904665931 262.977993211711 261.989846178156 260.869758332797 257.185247234402 252.493747561818 247.798382293332 243.273100777059 236.690718681574 230.674983009077 223.220537111541 211.679201731684 202.840537827928 188.103262629201 167.751812076284 154.480232921779 145.42776184655 141.144402068838 136.463690885258 133.507133278779 128.549763218042 124.348984576452 121.093558980473 116.852141643389 108.823684455089 106.22011714667 109.648656014656 110.320673488984 111.595654715805 113.191551812159 114.302866090962 116.336663402391 114.383276299988 113.932972162103 116.445286074749 120.77869998255 123.851292173937 122.772067666387 122.46262780353 102.465516070314 102.277055956726 115.328637159712 127.043711426695 133.6870983741 137.281179249455 140.969328508203 140.730550475351 123.068964884582 113.333102101269 134.933299970949 149.497360851966 121.323001072234 128.345428144684 160.432276359316 161.581180723347 160.375018454033 156.380358244869 151.894861113509 147.791566788121 142.193434661576 133.47726874479 126.273402657436 96.1875476498619 95.9951550024078 101.717396260529 119.721017341656 130.948556875711 129.482527978302 119.837098994315 111.14047742608 109.814520277942 115.857922401477 110.032736558656 124.162101426257 134.826884009857
373.440565494985 370.178796804506 366.882470265042 363.003384227922 359.133498597392 356.403424806618 353.136191236218 350.445734521853 348.32295703232 345.528514412477 342.833322674278 340.729997503141 338.923825095847 337.391438108704 334.717262755095 332.300415092498 329.029672820896 326.609286825482 324.490239354631 322.001278592855 319.564314112702 315.103381380809 310.628097038758 307.305689761548 304.595792548543 302.180580883045 300.70697179171 299.803768382375 298.580904845427 298.39595585333 298.348909636594 298.397431715414 301.353118982593 309.982885755557 318.376080130659 326.296363154754 334.965910083895 341.860112458369 346.384214641282 349.787306244759 351.306285218839 353.101459031818 354.597349994759 356.082148741998 356.685503258428 357.278835756651 356.981993419109 356.090387743463 355.486506820366 354.589483576983 353.395769457292 351.300299575256 348.885665956641 344.88746131041 340.392547538558 336.187080405994 331.395371409048 326.897860465716 323.240463083715 317.131738016495 309.06386041669 300.20627299816 295.954570657203 292.526834415237 288.61108089806 284.122771410778 279.922562756462 275.428697660349 270.940060670289 267.042757904022 264.299068849483 260.837953151598 253.105480464344 248.434406543536 241.484559399361 236.271430965095 229.190122524536 212.588180382154 208.675815169112 206.946256905193 200.68808749564 192.112795715118 185.282281962714 181.016653118889 178.048088429904 173.112886325587 174.707946896121 172.097769868791 169.502104033273 156.908319519341 156.28203345982 161.775717802502 168.819304687917 174.602780819389 181.309016200577 182.946291767473 183.244117934217 181.397086743695 179.358319007949 180.378710044119 181.376003953074 182.967254074135 183.489618173548 183.77240532941 181.405879176489 179.303514623967 175.9384568453 173.53343311136 172.193535407824 169.06439535839 169.290950414377 167.976245075457 166.08951267784 163.990115483243 161.916133957736 161.095408091204 157.715360464556 155.833521760599 151.891033153645 142.252126136755 124.980963819717 125.003195917614 150.272989409461 171.818002361082 189.559852146152 196.666247059527 203.280857891728 213.413192270275 206.70126593349 200.096662888843 192.803527942017 194.473810692843 187.734754050935 184.393072523248 187.160435582784 190.310563302054 192.381888501421 188.57960346414 189.285535120065 196.466737208863 199.891908753297 204.180180751729 211.223772720466 220.388603638331 231.406277901197 240.333095256333 241.67714211693 241.6551927195 240.60116604196 238.656425054977 241.062215865408 243.524704590168 242.961492430972 243.621939018574 251.614515784262 257.173120550314 261.658345817597 264.360264401998 264.575000365744 262.991976756062 260.904114143557 259.39665231272 256.689822916963 252.208951254961 248.306233197781 244.069805196842 238.60178751986 232.472434848411 223.826316052569 216.197544599063 208.340218294632 194.793392863519 183.320174320556 166.816130826821 156.493359484282 148.090435365752 143.019942624137 138.762364328486 133.007582656545 128.003666280048 122.740234792422 119.010810172628 113.923402370847 106.029836256107 105.844203971893 110.09247490499 110.193582001384 110.19197321848 110.188201798275 110.299474223922 110.251506494624 110.141578844124 110.473399704689 112.382206354056 116.759149033706 108.536488597788 102.839922783953 102.651505577738 123.07391895441 136.014135822259 152.728227756477 155.876256858773 154.745948644355 155.352416753157 154.526734493845 139.023676611187 115.576602527018 149.093388767738 149.151264024712 121.638928608876 154.041769773947 171.577259797848 173.236434566755 169.173738916815 165.469712318246 161.966953315958 158.081467824958 154.548201890959 147.744332692659 135.14490862076 107.859609264584 95.8012561519886 101.366184907396 119.164897878728 124.397892246152 117.298738226161 108.86922807446 105.205502723135 104.19371009638 103.322524303935 103.983047040135 107.762872500435 114.756444117972
380.478306867608 377.481327661152 374.365834827028 370.765650560089 367.179319173942 363.904462413355 361.494007371304 359.089975239229 356.677484751773 353.399984092118 350.406494231729 347.900346826862 345.50704267324 343.11117155808 340.414813280425 337.419261016654 334.406737886514 330.838986668244 328.122251740014 325.410038681118 322.026931579345 318.396105477031 313.320499205266 308.538310428881 304.925237557641 302.515798155358 301.572915371041 300.394378277274 299.508565739411 299.132136800963 298.302883576404 298.473257376896 300.470366642401 309.985363135472 318.978306306117 327.491115961244 337.320324633891 344.249058351699 348.869033268293 352.488483646484 354.001406051743 356.088957659556 357.876584076974 358.777563925459 359.385769283032 359.396044762995 359.095015853983 358.783170749074 357.599251430779 357.286835387346 355.495246607642 353.091635883506 350.970840427164 346.091767583167 341.298976740755 337.088087603308 332.592078306439 328.366551071377 322.941756636854 313.629965651136 306.420343940294 300.991799404002 295.904546622009 292.005427497312 288.012695533476 283.512923028 279.298749053255 274.813169871814 270.613202353488 266.72472908036 263.989172847892 260.023017278045 256.11699936524 252.449175059382 247.928639155355 242.974907387346 237.501812261134 230.150245544582 225.583316666602 220.702831925356 212.366121259133 199.081746600285 186.973918511678 183.159266574253 181.7578900939 179.955130135459 178.951382432796 176.576124909493 170.915989763312 164.970758695221 155.418103162741 154.875565440375 160.64022726693 163.866627631308 170.328190552581 173.390620095364 173.45126683642 174.261378523319 173.527870457515 172.569459343623 172.565938192055 173.051577283677 172.598895609744 174.630538168777 174.637773503054 176.662655509481 176.648009350146 173.949893515593 171.126839152426 171.074068554448 169.809406360735 168.288917267809 166.66939338698 164.769882794731 162.673782052784 161.034565308423 157.525477184076 154.578363270359 150.466448714473 142.082833738388 125.160863356969 126.625420290853 154.635295345689 179.731065127931 196.610538797126 204.281287394542 207.57990923588 225.006805163634 218.519818166523 210.659301566406 206.986265657452 203.792725323072 202.164445523693 201.91049315522 198.371034486355 198.614427586381 199.445929053946 200.304338943966 206.80640040635 214.578442500207 215.175028040152 217.887787729101 223.084755303475 229.388271387347 241.667262602597 246.211399447653 248.303335042612 248.585190371922 247.183050497996 244.614557128818 241.741888643699 247.760347536021 248.820082349994 254.531173804046 256.966662173871 260.8717550708 264.567633619596 264.588880600192 264.378481597126 261.706058669216 260.894194495904 259.37481173032 256.477444981925 252.78724206828 249.532646957803 245.387620469759 240.381973293126 234.278755712429 227.177307769984 219.144038802062 213.411859333164 208.989836902913 204.969290086781 191.611364978282 175.875027225955 160.291140756531 149.121331577288 143.61587432233 136.499808427953 131.914984754606 126.621903631385 122.987687963351 120.948874429755 110.142092048503 105.655544464581 108.84406291275 109.754707115135 109.525721401866 109.090747105877 108.862247147261 108.777371780079 109.049093610954 108.972673761148 107.083690363549 103.401853476871 103.214607805669 103.026260576059 128.970263599331 146.682348347736 163.292187294629 170.201870394858 168.392528733654 167.133161426705 168.613924945101 168.143599572422 154.087958893365 123.388714676372 131.908853854051 123.99589663091 138.49354634503 171.249390639419 178.616339635362 177.463862269234 174.373379392107 170.297672537207 168.961757469785 165.26467696035 159.891414472403 155.363249738483 147.626176087529 127.456570583848 95.6158215747652 101.61131810408 104.003543481724 117.162056688501 109.964868149844 104.671083615251 104.588469957657 100.76320764455 101.870966640155 100.121682475003 92.8895984511439 92.6970678535327
