ncols         233
nrows         32
xllcorner     381895.000003
yllcorner     505695.000025
cellsize      50
NODATA_value  -9999
-9999 -9999 -9999 -9999 -9999 -9999 -9999 -9999 -9999 -9999 -9999 -9999 -9999 -9999 -9999 -9999 -9999 -9999 -9999 -9999 -9999 -9999 -9999 -9999 -9999 -9999 -9999 -9999 -9999 -9999 -9999 -9999 -9999 -9999 -9999 -9999 -9999 -9999 -9999 -9999 -9999 -9999 -9999 -9999 -9999 -9999 -9999 -9999 -9999 -9999 -9999 -9999 -9999 -9999 -9999 -9999 -9999 -9999 -9999 -9999 -9999 -9999 -9999 -9999 -9999 -9999 -9999 -9999 -9999 -9999 -9999 -9999 -9999 -9999 -9999 -9999 -9999 -9999 -9999 -9999 -9999 -9999 -9999 -9999 -9999 -9999 -9999 -9999 -9999 -9999 -9999 -9999 -9999 -9999 -9999 -9999 -9999 -9999 -9999 -9999 -9999 -9999 -9999 -9999 -9999 -9999 -9999 -9999 -9999 -9999 -9999 -9999 -9999 -9999 -9999 -9999 -9999 -9999 -9999 -9999 -9999 -9999 -9999 -9999 -9999 -9999 -9999 -9999 -9999 -9999 -9999 -9999 491.605178725673 491.224893823977 494.364915182136 492.013016798118 492.011386997725 493.203449968712 495.205700912206 498.388539641607 499.197757212232 -9999 -9999 -9999 -9999 -9999 -9999 -9999 -9999 -9999 -9999 -9999 -9999 -9999 -9999 -9999 -9999 -9999 -9999 -9999 -9999 -9999 -9999 -9999 -9999 -9999 -9999 -9999 -9999 -9999 -9999 -9999 -9999 -9999 -9999 -9999 -9999 -9999 -9999 -9999 -9999 -9999 -9999 -9999 -9999 -9999 -9999 -9999 -9999 -9999 -9999 -9999 -9999 -9999 -9999 -9999 -9999 -9999 -9999 -9999 -9999 -9999 -9999 -9999 -9999 -9999 -9999 -9999 -9999 -9999 493.376813614852 488.616648878591 485.998476069827 483.310057914624 480.708923787904 478.969244240631 475.385510808971 471.898515698352 469.307263543145 467.974173264712 463.582775041643 461.004011037525 460.941771864164 455.84940206312 451.617543038908 448.979294272435 440.40238689292 440.770463500605 437.516102363329 430.990347378938 431.005337082195 426.276216399716 420.518300433805
-9999 -9999 -9999 -9999 -9999 -9999 -9999 -9999 -9999 -9999 -9999 -9999 -9999 -9999 -9999 -9999 -9999 -9999 -9999 -9999 -9999 -9999 -9999 -9999 -9999 -9999 -9999 -9999 -9999 -9999 -9999 -9999 -9999 -9999 -9999 -9999 -9999 -9999 -9999 -9999 -9999 -9999 -9999 -9999 -9999 -9999 -9999 -9999 -9999 -9999 -9999 -9999 -9999 -9999 -9999 -9999 -9999 -9999 -9999 -9999 -9999 -9999 -9999 -9999 -9999 -9999 -9999 -9999 -9999 -9999 -9999 -9999 -9999 -9999 -9999 -9999 -9999 -9999 -9999 -9999 -9999 -9999 -9999 -9999 -9999 -9999 -9999 -9999 -9999 -9999 -9999 -9999 -9999 -9999 -9999 -9999 -9999 -9999 -9999 -9999 -9999 -9999 -9999 -9999 -9999 -9999 -9999 -9999 -9999 -9999 -9999 -9999 -9999 -9999 -9999 -9999 -9999 -9999 -9999 -9999 -9999 -9999 -9999 -9999 -9999 -9999 -9999 -9999 -9999 -9999 -9999 -9999 491.191692391725 491.190264366415 491.192003951643 491.1922782713 491.21195224296 492.809483851542 495.60329964801 499.169731425647 499.198822467174 -9999 -9999 -9999 -9999 -9999 -9999 -9999 -9999 -9999 -9999 -9999 -9999 -9999 -9999 -9999 -9999 -9999 -9999 -9999 -9999 -9999 -9999 -9999 -9999 -9999 -9999 -9999 -9999 -9999 -9999 -9999 -9999 -9999 -9999 -9999 -9999 -9999 -9999 -9999 -9999 -9999 -9999 -9999 -9999 -9999 -9999 -9999 -9999 -9999 -9999 -9999 -9999 -9999 -9999 -9999 -9999 -9999 -9999 -9999 -9999 -9999 -9999 -9999 -9999 -9999 502.68998156515 500.005484222358 497.803519772159 495.583903432735 492.985141402596 489.02392244761 487.291897520044 484.213984456578 481.608972930893 479.384497637582 475.878187919013 471.9072341168 469.302698427925 466.698146442717 463.977600561192 460.158876976466 459.13371673707 456.048307212335 451.373087747025 449.047139311081 443.815534134365 440.315712854611 438.94858549236 432.915944548787 431.071568375296 430.908476561746 422.524586708275
-9999 -9999 -9999 -9999 -9999 -9999 -9999 -9999 -9999 -9999 -9999 -9999 -9999 -9999 -9999 -9999 -9999 -9999 -9999 -9999 -9999 -9999 -9999 -9999 -9999 -9999 -9999 -9999 -9999 -9999 -9999 -9999 -9999 -9999 -9999 -9999 -9999 -9999 -9999 -9999 -9999 -9999 -9999 -9999 -9999 -9999 -9999 -9999 -9999 -9999 -9999 -9999 -9999 -9999 -9999 -9999 -9999 -9999 -9999 -9999 -9999 -9999 -9999 -9999 -9999 -9999 -9999 -9999 -9999 -9999 -9999 -9999 -9999 -9999 -9999 -9999 -9999 -9999 -9999 -9999 -9999 -9999 -9999 -9999 -9999 -9999 -9999 -9999 -9999 -9999 -9999 -9999 -9999 -9999 -9999 -9999 -9999 -9999 -9999 -9999 -9999 -9999 -9999 -9999 -9999 -9999 -9999 -9999 -9999 -9999 -9999 -9999 -9999 -9999 -9999 -9999 -9999 -9999 -9999 -9999 -9999 -9999 -9999 -9999 -9999 -9999 -9999 -9999 -9999 -9999 -9999 -9999 489.598491553352 489.982720856958 488.821842353425 488.840115714783 491.197370900914 492.420245931178 495.988831358538 499.174962040522 -9999 -9999 -9999 -9999 -9999 -9999 -9999 -9999 -9999 -9999 -9999 -9999 -9999 -9999 -9999 -9999 -9999 -9999 -9999 -9999 -9999 -9999 -9999 -9999 -9999 -9999 -9999 -9999 -9999 -9999 -9999 -9999 -9999 -9999 -9999 -9999 -9999 -9999 -9999 -9999 -9999 -9999 -9999 -9999 -9999 -9999 -9999 -9999 -9999 -9999 -9999 -9999 -9999 -9999 -9999 -9999 -9999 -9999 -9999 -9999 -9999 -9999 -9999 -9999 -9999 -9999 502.712845581055 500.898467893714 497.816606675161 496.096416601854 493.030363694599 490.819939488994 488.215493426958 486.376645803223 482.892028261325 479.391197181673 475.002538597803 471.029141148748 469.667522594344 466.702484058487 463.589534344581 460.549640577833 459.148043156893 455.194865589094 450.947786262673 449.036075081807 444.686178059213 440.788164040384 438.431780668681 430.868163028158 429.061602167651 422.458435519462 419.808768136047
-9999 -9999 -9999 -9999 -9999 -9999 -9999 -9999 -9999 -9999 -9999 -9999 -9999 -9999 -9999 -9999 -9999 -9999 -9999 -9999 -9999 -9999 -9999 -9999 -9999 -9999 -9999 -9999 -9999 -9999 -9999 -9999 -9999 -9999 -9999 -9999 -9999 -9999 -9999 -9999 -9999 -9999 -9999 -9999 -9999 -9999 -9999 -9999 -9999 -9999 -9999 -9999 -9999 -9999 -9999 -9999 -9999 -9999 -9999 -9999 -9999 -9999 -9999 -9999 -9999 -9999 -9999 -9999 -9999 -9999 -9999 -9999 -9999 -9999 -9999 -9999 -9999 -9999 -9999 -9999 -9999 -9999 -9999 -9999 -9999 -9999 -9999 -9999 -9999 -9999 -9999 -9999 -9999 -9999 -9999 -9999 -9999 -9999 -9999 -9999 -9999 -9999 -9999 -9999 -9999 -9999 -9999 -9999 -9999 -9999 -9999 -9999 -9999 -9999 -9999 -9999 -9999 -9999 -9999 -9999 -9999 -9999 -9999 -9999 -9999 -9999 -9999 -9999 -9999 -9999 -9999 -9999 487.58622065131 487.977596817907 487.984882456784 489.191199398867 491.170437420315 492.407307704104 495.981294588872 499.178783108581 499.198817993762 499.198285205631 499.186560388487 497.974413696031 494.402236922159 -9999 -9999 -9999 -9999 -9999 -9999 -9999 -9999 -9999 -9999 -9999 -9999 -9999 -9999 -9999 -9999 -9999 -9999 -9999 -9999 -9999 -9999 -9999 -9999 -9999 -9999 -9999 -9999 -9999 -9999 -9999 -9999 -9999 -9999 -9999 -9999 -9999 -9999 -9999 -9999 -9999 -9999 -9999 -9999 -9999 -9999 -9999 -9999 -9999 -9999 -9999 -9999 -9999 -9999 -9999 -9999 -9999 -9999 -9999 511.00460428933 508.403223530981 504.913623470228 501.828924880166 499.131275519853 497.802831569521 496.114499768285 496.457262404016 490.800350245193 488.588744752851 483.77416566502 479.388448783422 474.614401208866 470.269972661829 469.686269237038 467.054157792381 464.410365780407 461.728752892203 458.340450491387 454.397320686412 450.860480871498 446.84130079645 442.946641528699 439.5730111304 431.008319141287 427.921954407629 424.550332980677 422.648500670169 421.074174812558
-9999 -9999 -9999 -9999 -9999 -9999 -9999 -9999 -9999 -9999 -9999 -9999 -9999 -9999 -9999 -9999 -9999 -9999 -9999 -9999 -9999 -9999 -9999 -9999 -9999 -9999 -9999 -9999 -9999 -9999 -9999 -9999 -9999 -9999 -9999 -9999 -9999 -9999 -9999 -9999 -9999 -9999 -9999 -9999 -9999 -9999 -9999 -9999 -9999 -9999 -9999 -9999 -9999 -9999 -9999 -9999 -9999 -9999 -9999 -9999 -9999 -9999 -9999 -9999 -9999 -9999 589.59274626722 589.589970042781 -9999 -9999 -9999 -9999 -9999 -9999 -9999 -9999 -9999 -9999 -9999 -9999 -9999 -9999 -9999 -9999 -9999 -9999 -9999 -9999 -9999 -9999 -9999 -9999 -9999 -9999 -9999 -9999 -9999 -9999 -9999 -9999 -9999 -9999 -9999 -9999 -9999 -9999 -9999 -9999 -9999 -9999 -9999 -9999 -9999 -9999 -9999 -9999 -9999 -9999 -9999 -9999 -9999 -9999 -9999 -9999 -9999 -9999 -9999 -9999 -9999 -9999 -9999 484.386110419765 484.789359635108 484.811263088578 486.00371186521 487.994922966689 488.834767966526 491.609977983714 495.192619723909 498.370629655936 499.183054067254 499.175811855414 497.956498449821 494.395507270941 491.620940204063 -9999 -9999 -9999 -9999 -9999 -9999 -9999 -9999 -9999 -9999 -9999 -9999 -9999 -9999 -9999 -9999 -9999 -9999 -9999 -9999 -9999 -9999 -9999 -9999 -9999 -9999 -9999 -9999 -9999 -9999 -9999 -9999 -9999 -9999 -9999 -9999 -9999 -9999 -9999 -9999 -9999 -9999 -9999 -9999 -9999 -9999 -9999 -9999 -9999 -9999 -9999 -9999 -9999 -9999 -9999 -9999 -9999 -9999 516.686869304417 511.937679682013 511.011668700313 509.693268150975 507.487516561432 504.404574558855 501.812388004552 500.492003483264 498.27809003048 493.388364916545 489.454658310075 483.319382261538 478.993144817031 475.012845857318 472.378986444613 469.678697930001 466.680647369458 463.967579241545 460.166440206978 457.3613681505 452.579743622143 448.14286588896 441.023906258857 436.327598389624 429.874314963675 429.304685450018 428.806427063686 430.397052630122 430.938417123714 435.721205480335
-9999 -9999 -9999 -9999 -9999 -9999 -9999 -9999 -9999 -9999 -9999 -9999 -9999 -9999 -9999 -9999 -9999 -9999 -9999 -9999 -9999 -9999 -9999 -9999 -9999 -9999 -9999 -9999 -9999 -9999 -9999 -9999 -9999 -9999 -9999 -9999 -9999 -9999 -9999 -9999 -9999 -9999 -9999 -9999 -9999 -9999 -9999 -9999 -9999 -9999 -9999 -9999 -9999 -9999 -9999 -9999 -9999 -9999 595.176543024402 590.316706837851 590.772822538507 588.592005798077 589.968441553404 589.182719983088 589.580807158072 589.190212149716 587.998873746135 587.966895486708 587.171489556833 -9999 -9999 -9999 -9999 -9999 -9999 -9999 -9999 -9999 -9999 -9999 -9999 -9999 -9999 -9999 -9999 -9999 -9999 -9999 -9999 -9999 -9999 -9999 -9999 -9999 -9999 -9999 -9999 -9999 -9999 -9999 -9999 -9999 -9999 -9999 -9999 -9999 -9999 -9999 -9999 -9999 -9999 -9999 -9999 -9999 -9999 -9999 -9999 -9999 -9999 -9999 -9999 -9999 -9999 -9999 -9999 -9999 -9999 -9999 -9999 -9999 480.514402011293 481.693276930002 481.703450871819 482.122627691244 484.000421465477 486.757069232244 489.173329275487 491.196426068297 494.380309301313 496.768154448467 496.775870206037 495.973513059865 493.205016419106 490.832867220032 490.416327659977 -9999 -9999 -9999 -9999 -9999 -9999 -9999 -9999 -9999 -9999 -9999 -9999 -9999 -9999 -9999 -9999 -9999 -9999 -9999 -9999 -9999 -9999 -9999 -9999 -9999 -9999 -9999 -9999 -9999 -9999 -9999 -9999 -9999 -9999 -9999 -9999 -9999 -9999 -9999 -9999 -9999 -9999 -9999 -9999 -9999 -9999 -9999 -9999 -9999 -9999 -9999 -9999 -9999 -9999 -9999 -9999 -9999 -9999 519.289897634712 517.106691598772 517.073336107621 514.894052678169 513.18523831722 510.579106242031 507.47643142066 503.48455414291 499.074377374364 493.892321749268 488.980593957143 483.302437432175 478.521522148503 475.409869805967 473.161177463766 470.137526984097 466.718116193628 462.790378347691 459.173664502069 452.356144586913 450.537232907112 440.451593105246 434.401601371318 432.160847568838 431.432616524641 434.734858851306 437.823568614013 438.542524186167 438.064667069267 435.882051411874
-9999 -9999 -9999 -9999 -9999 -9999 -9999 -9999 -9999 -9999 -9999 -9999 -9999 -9999 -9999 -9999 -9999 -9999 -9999 -9999 -9999 -9999 -9999 -9999 -9999 -9999 -9999 -9999 -9999 -9999 -9999 -9999 -9999 -9999 -9999 -9999 -9999 -9999 -9999 -9999 -9999 -9999 -9999 -9999 -9999 -9999 -9999 -9999 -9999 -9999 -9999 -9999 -9999 -9999 -9999 -9999 -9999 -9999 594.282743209171 589.921708786398 588.088828542426 582.971591697708 587.534807538804 583.625468015999 587.149401531921 588.250081330428 587.541575761089 582.406404992516 578.861541514174 -9999 -9999 -9999 -9999 -9999 -9999 -9999 -9999 -9999 -9999 -9999 -9999 -9999 -9999 -9999 -9999 -9999 -9999 -9999 -9999 -9999 -9999 -9999 -9999 -9999 -9999 -9999 -9999 -9999 -9999 -9999 -9999 -9999 -9999 -9999 -9999 -9999 -9999 -9999 -9999 -9999 -9999 -9999 -9999 -9999 -9999 -9999 -9999 -9999 -9999 -9999 -9999 -9999 -9999 -9999 -9999 -9999 -9999 -9999 478.906711044866 481.278358960509 481.274629598191 478.924016294074 478.941032309911 480.114464797478 481.699448992656 483.316678474884 487.17141979751 490.374303407386 492.380340115319 493.186151666463 492.405541871805 491.218959706216 490.032835530608 490.018628135093 491.191160557481 -9999 -9999 -9999 -9999 -9999 -9999 -9999 -9999 -9999 -9999 -9999 -9999 -9999 -9999 -9999 -9999 -9999 -9999 -9999 -9999 -9999 -9999 -9999 -9999 -9999 -9999 -9999 -9999 -9999 -9999 -9999 -9999 -9999 -9999 -9999 -9999 -9999 -9999 -9999 -9999 -9999 -9999 -9999 -9999 -9999 -9999 -9999 -9999 -9999 -9999 -9999 -9999 -9999 -9999 -9999 -9999 -9999 -9999 523.308821042719 522.398954365834 521.978037791708 519.783473874512 517.082493006825 513.190706586604 509.168702972286 503.495568403265 498.295245889212 493.001187442637 488.587642883615 482.912996991061 479.006878898618 475.896379711691 473.609842524599 470.563625272522 466.746363108358 463.882217098781 457.713011041107 441.787488402218 439.433501372996 438.634783014441 437.777999044181 439.631965099731 441.340241819821 441.561291161164 442.485854386554 443.372623467415 441.197840868469 438.566498678413
-9999 -9999 -9999 -9999 -9999 -9999 -9999 -9999 -9999 -9999 -9999 -9999 -9999 -9999 -9999 -9999 -9999 -9999 -9999 -9999 -9999 -9999 -9999 -9999 -9999 -9999 -9999 -9999 -9999 -9999 -9999 -9999 -9999 -9999 -9999 -9999 -9999 -9999 -9999 -9999 -9999 -9999 -9999 -9999 -9999 -9999 -9999 -9999 -9999 -9999 -9999 -9999 -9999 -9999 -9999 -9999 595.99338619016 596.873663118574 594.678355855964 590.793194061404 587.670448035372 581.5731626381 580.428608667258 579.219472422442 579.984609673955 581.180110843771 581.188123981344 578.838832122084 578.809426979438 -9999 -9999 -9999 -9999 -9999 -9999 -9999 -9999 -9999 -9999 -9999 -9999 -9999 -9999 -9999 -9999 -9999 -9999 -9999 -9999 -9999 -9999 -9999 -9999 -9999 -9999 -9999 -9999 -9999 -9999 -9999 -9999 -9999 -9999 -9999 -9999 -9999 -9999 -9999 -9999 -9999 -9999 -9999 -9999 -9999 -9999 -9999 -9999 -9999 -9999 -9999 -9999 -9999 -9999 -9999 -9999 -9999 -9999 -9999 478.902268239207 478.900399473214 478.49840020078 478.084376515961 478.073917758097 478.484876039675 479.297009925001 480.136755368394 483.603426140929 488.356768108581 488.808950562777 490.000184965561 490.001431141402 488.841420329921 491.178485107913 490.017586573688 490.803142734901 -9999 -9999 -9999 -9999 -9999 -9999 -9999 -9999 -9999 -9999 -9999 -9999 -9999 -9999 -9999 -9999 -9999 -9999 -9999 -9999 -9999 -9999 -9999 -9999 -9999 -9999 -9999 -9999 -9999 -9999 -9999 -9999 -9999 -9999 -9999 -9999 -9999 -9999 -9999 -9999 -9999 -9999 -9999 -9999 -9999 -9999 -9999 -9999 -9999 -9999 -9999 -9999 -9999 -9999 -9999 -9999 530.816979656649 529.419929784138 528.587248443158 526.393222288277 524.586183555767 521.987400740729 518.864980411445 513.592519630417 508.784288327271 502.702087589589 497.79327973629 492.111574766668 487.697560765843 483.304044474174 479.371270262946 475.871744353065 473.97306772478 470.596593052071 465.266671000276 460.52680810284 449.225207454794 444.324220426653 449.69593473043 451.086353800415 449.805146715903 449.41147671136 446.457639472604 445.610913336488 448.15407323879 448.159129651872 444.305262714308 439.03665169116
-9999 -9999 -9999 -9999 -9999 -9999 -9999 -9999 -9999 -9999 -9999 -9999 -9999 -9999 -9999 -9999 -9999 -9999 -9999 -9999 -9999 -9999 -9999 -9999 -9999 -9999 -9999 -9999 -9999 -9999 -9999 -9999 -9999 -9999 -9999 -9999 -9999 -9999 -9999 -9999 -9999 -9999 -9999 -9999 -9999 -9999 -9999 -9999 -9999 -9999 -9999 -9999 -9999 -9999 -9999 593.407137739084 594.682909116599 594.676498755945 593.36690727852 590.765258497622 587.635128459936 582.409705445766 582.734345797779 573.667375257409 572.441215637291 573.256191585845 577.193303915652 578.812409022612 578.811722552818 -9999 -9999 -9999 -9999 -9999 -9999 -9999 -9999 -9999 -9999 -9999 -9999 -9999 -9999 -9999 -9999 -9999 -9999 -9999 -9999 -9999 -9999 -9999 -9999 -9999 -9999 -9999 -9999 -9999 -9999 -9999 -9999 -9999 -9999 -9999 -9999 -9999 -9999 -9999 -9999 -9999 -9999 -9999 -9999 -9999 -9999 -9999 -9999 -9999 -9999 -9999 -9999 -9999 -9999 -9999 -9999 478.900001427148 478.901069274703 478.901598093276 479.284437482297 477.691668740443 476.889797401946 476.089171893615 475.316300821877 475.711503804181 476.892981384942 478.109376977892 480.514600109116 483.982410295093 486.755447347209 488.355884585836 488.730678836427 488.810108736135 489.997755814671 491.196841440365 492.792420325597 -9999 -9999 -9999 -9999 -9999 -9999 -9999 -9999 -9999 -9999 -9999 -9999 -9999 -9999 -9999 -9999 -9999 -9999 -9999 -9999 -9999 -9999 -9999 -9999 -9999 -9999 -9999 -9999 -9999 -9999 -9999 -9999 -9999 -9999 -9999 -9999 -9999 -9999 -9999 -9999 -9999 -9999 -9999 -9999 -9999 -9999 -9999 -9999 -9999 -9999 -9999 -9999 -9999 -9999 -9999 -9999 536.48859504744 534.689874254356 532.08997992839 528.603047111875 525.493992735905 521.999307534873 518.478202670183 512.793119182918 507.885205169211 502.197687420348 496.990313629511 492.093792108224 486.90459111889 483.246601529993 479.203956674238 475.28330344777 472.399313146313 467.950312389757 461.407845517711 449.83400000933 448.948825567666 453.769054082183 460.848039888743 458.75409006908 457.821651505499 452.643363862133 449.2230297251 449.180077913525 451.697085407914 452.567810887179 449.963283754817 440.012155641839
-9999 -9999 -9999 -9999 -9999 -9999 -9999 -9999 -9999 -9999 -9999 -9999 -9999 -9999 -9999 -9999 -9999 -9999 -9999 -9999 -9999 -9999 -9999 -9999 -9999 -9999 -9999 -9999 -9999 -9999 -9999 -9999 -9999 -9999 -9999 -9999 -9999 -9999 -9999 -9999 -9999 -9999 -9999 -9999 -9999 -9999 -9999 -9999 -9999 -9999 -9999 -9999 599.972379513093 599.461510065535 596.467584348424 592.49573852653 592.064976986265 590.757830505836 589.344475941185 585.872006749478 583.268169142899 580.177457532454 579.117533840433 573.969159494782 566.569067968673 568.864434483403 578.337336469498 582.345410030859 581.188686209361 -9999 -9999 -9999 -9999 -9999 -9999 -9999 -9999 -9999 -9999 -9999 -9999 -9999 -9999 -9999 -9999 -9999 -9999 -9999 -9999 -9999 -9999 -9999 -9999 -9999 -9999 -9999 -9999 -9999 -9999 -9999 -9999 -9999 -9999 -9999 -9999 -9999 -9999 -9999 -9999 -9999 -9999 -9999 -9999 -9999 -9999 -9999 -9999 -9999 -9999 -9999 -9999 -9999 -9999 -9999 -9999 478.903305607984 478.90820371134 479.682732994361 477.694196280783 476.094900805839 474.505935779143 473.697745122654 472.542538073336 473.305061115633 474.12124342886 476.098681002351 478.493187738501 480.108699642316 480.928679647046 482.889298858309 485.200785350157 491.156938245846 490.037926436878 491.603350142452 493.997987374087 495.997761989587 -9999 -9999 -9999 -9999 -9999 -9999 -9999 -9999 -9999 -9999 -9999 -9999 -9999 -9999 -9999 -9999 -9999 -9999 -9999 -9999 -9999 -9999 -9999 -9999 -9999 -9999 -9999 -9999 -9999 -9999 -9999 -9999 -9999 -9999 -9999 -9999 -9999 -9999 -9999 -9999 -9999 -9999 -9999 -9999 -9999 -9999 -9999 -9999 -9999 -9999 -9999 -9999 -9999 -9999 -9999 542.582304135712 538.200886485016 534.695333914496 530.78116158455 526.389889646415 522.37283677671 517.567790388075 511.011294826115 506.583731032947 500.906934887033 496.096640577083 490.807207493608 486.370569807504 482.313211247701 476.333879676942 469.638663168833 468.032001243781 461.496506179959 452.828446032583 450.319368371614 459.860302232219 462.229300736339 463.948446657172 463.950211667889 462.239137200477 458.76308430469 456.096894617401 456.083000371521 456.975803908804 456.587003311147 456.032623170987 449.050142930343
-9999 -9999 -9999 -9999 -9999 -9999 -9999 -9999 -9999 -9999 -9999 -9999 -9999 -9999 -9999 -9999 -9999 -9999 -9999 -9999 -9999 -9999 -9999 -9999 -9999 -9999 -9999 -9999 -9999 -9999 -9999 -9999 -9999 -9999 -9999 -9999 -9999 -9999 -9999 -9999 -9999 -9999 -9999 -9999 -9999 -9999 -9999 -9999 -9999 598.18240048484 599.450526604769 596.477590196468 595.181443368099 594.272932077742 591.586634328483 590.250215860884 587.240858165224 582.019839253632 580.684782335799 578.873907511262 576.292841856326 575.353008394136 571.224283721056 571.098357861396 559.159769667613 570.685277917521 577.087396084223 579.121660158225 581.132316066428 579.965469711278 579.584528167013 578.802231132622 -9999 -9999 -9999 -9999 -9999 -9999 -9999 -9999 -9999 -9999 -9999 -9999 -9999 -9999 -9999 -9999 -9999 -9999 -9999 -9999 -9999 -9999 -9999 -9999 -9999 -9999 -9999 -9999 -9999 -9999 -9999 -9999 -9999 -9999 -9999 -9999 -9999 -9999 -9999 -9999 -9999 -9999 -9999 -9999 -9999 -9999 -9999 -9999 495.592214459724 492.414120329212 -9999 -9999 -9999 478.907749723064 481.258434298989 478.488354986551 476.490191493309 474.099108937184 472.501710521041 471.684993741777 470.540273626927 470.947094109348 472.12287309522 474.099834262276 476.089590199476 477.662686987829 478.106794536266 478.990148120298 483.318284641661 491.144443903793 490.835934962054 492.768963819713 494.789000828798 497.201000067936 500.416960966129 505.119584750105 509.100533394385 -9999 -9999 -9999 -9999 -9999 -9999 -9999 -9999 -9999 -9999 -9999 -9999 -9999 -9999 -9999 -9999 -9999 -9999 -9999 -9999 -9999 -9999 -9999 -9999 -9999 -9999 -9999 -9999 -9999 -9999 -9999 -9999 -9999 -9999 -9999 -9999 -9999 -9999 -9999 -9999 -9999 -9999 -9999 -9999 -9999 -9999 -9999 -9999 -9999 -9999 555.295730715508 551.793403642225 546.985166836528 540.799709869289 536.00364901437 531.58738650039 525.890258825567 520.690646089957 515.385513307515 509.221303825118 504.894742543607 500.003200355715 495.201527940447 490.370291347475 485.41443446866 480.659818096541 473.94219411428 470.989820857556 465.139795459066 458.600959578919 452.876029142125 462.874632591529 465.750518678787 466.691100034282 466.708471027386 466.207936305218 464.900222521467 462.715994206676 461.041486418893 461.795658098688 461.795134634809 460.985221343167 457.896530547578 452.990995925073
-9999 -9999 -9999 -9999 -9999 -9999 -9999 -9999 -9999 -9999 -9999 -9999 -9999 -9999 -9999 -9999 -9999 -9999 -9999 -9999 -9999 -9999 -9999 -9999 -9999 -9999 -9999 -9999 -9999 -9999 -9999 -9999 -9999 -9999 -9999 -9999 -9999 -9999 -9999 -9999 -9999 -9999 -9999 -9999 -9999 -9999 -9999 -9999 -9999 592.99302212864 593.371225371011 591.190063545654 589.389019497585 588.562156273384 585.873458271933 582.878915984008 578.517692535595 575.016982989502 572.310496372388 570.118930296136 568.811307400164 568.361516063684 564.9197008174 563.661243917861 558.91142714832 561.707390695564 564.515620701127 568.100008973338 570.812174036743 574.004496364478 577.1875956545 579.579424222666 578.804367693949 -9999 -9999 -9999 -9999 -9999 -9999 -9999 -9999 -9999 -9999 -9999 -9999 -9999 -9999 -9999 -9999 -9999 -9999 -9999 -9999 -9999 -9999 -9999 -9999 -9999 -9999 -9999 -9999 -9999 -9999 -9999 -9999 -9999 -9999 -9999 -9999 -9999 -9999 -9999 -9999 -9999 -9999 -9999 -9999 -9999 -9999 -9999 497.17771249437 493.190559472758 489.177439707966 482.520462476836 478.975530392203 478.92570745119 479.287943996346 476.895095707216 474.494903471956 472.107708262477 470.509040953039 468.944757920983 468.924201000836 471.237967858967 470.499411044133 472.090068601644 473.676306181516 474.499741506815 475.345092007469 477.32217649393 480.945756486803 489.513842555557 491.596558330275 493.958867705895 494.805078745718 497.221696415023 502.409508569155 508.677762191147 513.484861619592 -9999 -9999 -9999 -9999 -9999 -9999 -9999 -9999 -9999 -9999 -9999 -9999 -9999 -9999 -9999 -9999 -9999 -9999 -9999 -9999 -9999 -9999 -9999 -9999 -9999 -9999 -9999 -9999 -9999 -9999 -9999 -9999 -9999 -9999 -9999 -9999 -9999 -9999 -9999 -9999 -9999 -9999 -9999 -9999 -9999 -9999 -9999 -9999 -9999 -9999 558.356604767228 553.07692229492 548.771667407933 543.477295420545 537.773211346272 531.584300397697 524.613569666284 518.906973781415 512.834623062725 508.409959256207 503.512510172797 499.108043315254 494.77786089666 490.571675278908 484.259241406665 479.507640473914 475.358218830012 470.94818983114 464.800073001856 458.897321002961 460.531440240323 469.199243853747 471.828020479651 470.979857363388 470.959224253746 469.692240115393 468.411166287874 467.50660887364 467.107136671248 468.360288291368 467.476112581801 465.291320298307 462.689417500275 458.778952951175
-9999 -9999 -9999 -9999 -9999 -9999 -9999 -9999 -9999 -9999 -9999 -9999 -9999 -9999 -9999 -9999 -9999 -9999 -9999 -9999 -9999 -9999 -9999 -9999 -9999 -9999 -9999 -9999 -9999 -9999 -9999 -9999 -9999 -9999 -9999 -9999 -9999 -9999 -9999 -9999 -9999 -9999 -9999 -9999 -9999 -9999 -9999 589.372244624606 590.739621108431 588.555363341731 586.776475159703 586.353161711844 582.415958685674 581.086852480367 578.011136617907 575.410626750781 573.185859820818 569.30088777051 564.953498438107 563.996484353246 562.213670533774 560.524583555172 558.92537006723 558.07378725515 555.326359946953 555.291280875427 555.755547832335 558.975527312126 564.529151331013 570.803865123864 575.57741914197 577.984783609109 579.977823046962 578.806071888642 -9999 -9999 -9999 -9999 -9999 -9999 -9999 -9999 -9999 -9999 -9999 -9999 -9999 -9999 -9999 -9999 -9999 -9999 -9999 -9999 -9999 -9999 -9999 -9999 -9999 -9999 -9999 -9999 -9999 -9999 -9999 -9999 -9999 -9999 -9999 -9999 -9999 -9999 -9999 -9999 -9999 -9999 -9999 -9999 -9999 -9999 499.547120836728 492.382869322702 487.182781107435 480.9801966096 481.247198893081 481.265269825775 478.092360321226 474.90330766625 472.499742038296 470.50300357731 469.285102046474 468.065628710564 467.660781659168 467.687773283876 468.494533311068 468.944378587737 471.273419623294 472.12355835755 473.68960457041 476.089267524579 478.947192870533 485.9743805583 491.175834462866 493.216108738761 495.209017165758 497.62497528 504.777281052765 511.482060310927 518.65940624429 521.089121814862 -9999 -9999 -9999 -9999 -9999 -9999 -9999 -9999 -9999 -9999 -9999 -9999 -9999 -9999 -9999 -9999 -9999 -9999 -9999 -9999 -9999 -9999 -9999 -9999 -9999 -9999 -9999 -9999 -9999 -9999 -9999 -9999 -9999 -9999 -9999 -9999 -9999 -9999 -9999 -9999 -9999 -9999 -9999 -9999 -9999 -9999 -9999 560.995416008293 559.689965341021 557.081159247056 551.812448362724 548.293148609443 543.009970491152 538.1797742075 530.318979375906 524.605336883695 518.494581551837 513.186546513355 507.898847349966 503.502347917883 499.065161222255 493.779055807808 488.974341975777 483.915955888394 478.513170480016 473.704529141588 470.089463314002 459.836896519637 461.010233712284 470.767735660001 473.646970561808 474.960586646328 474.103140548493 473.231279177099 473.212987389294 473.196006483093 472.421016174284 473.186041741775 473.187223362527 472.381616481439 470.179362499283 466.69211181326 461.797284523264
-9999 -9999 -9999 -9999 -9999 -9999 -9999 -9999 -9999 -9999 -9999 -9999 -9999 -9999 -9999 -9999 -9999 -9999 -9999 -9999 -9999 -9999 -9999 -9999 -9999 -9999 -9999 -9999 -9999 -9999 -9999 -9999 -9999 -9999 -9999 -9999 -9999 -9999 -9999 -9999 -9999 -9999 -9999 -9999 -9999 -9999 583.292314639872 584.183844727225 582.8950983906 578.964167572825 578.92015999671 578.882420402099 577.184795387472 574.503275881499 571.913964666184 570.09170895574 567.496338894672 564.880827273662 560.524767179911 557.84850283223 557.018366944324 556.09852670083 554.511515623444 552.932403060712 552.108524125196 550.190690152557 550.990350138846 556.536735321177 564.072867514796 569.978494385537 573.596125814053 576.390093139808 578.386955513817 579.982730427516 -9999 -9999 -9999 -9999 -9999 -9999 -9999 -9999 -9999 -9999 -9999 -9999 -9999 -9999 -9999 -9999 -9999 -9999 -9999 -9999 -9999 -9999 -9999 -9999 -9999 -9999 -9999 -9999 -9999 -9999 -9999 -9999 -9999 -9999 -9999 -9999 -9999 -9999 -9999 -9999 -9999 -9999 -9999 -9999 -9999 -9999 498.747167404597 488.845161898679 485.604532502464 481.73162524971 481.337102596952 481.277089592106 477.288045634829 472.912390339831 470.508879346825 468.896702750029 467.286740871462 465.317280841376 464.532618972486 464.904353375597 465.69335163742 467.285502090484 469.280654379665 470.13172074504 470.964599880702 473.332770119334 477.713986166723 482.922790175362 490.341140659331 493.198578375806 494.863959087002 498.459945984686 505.056866635922 513.854420697437 519.831488928551 521.106063803266 526.969399410205 -9999 -9999 -9999 -9999 -9999 -9999 -9999 -9999 -9999 -9999 -9999 -9999 -9999 -9999 -9999 -9999 -9999 -9999 -9999 -9999 -9999 -9999 -9999 -9999 -9999 -9999 -9999 -9999 -9999 -9999 -9999 -9999 -9999 -9999 -9999 -9999 -9999 -9999 -9999 -9999 -9999 -9999 -9999 -9999 566.290826774204 563.203136179418 560.218387151418 559.685446596019 555.80736587705 551.824575357768 549.166863823765 543.874261855505 538.165628464651 531.186134604969 524.576416561799 518.005035385402 511.442339469627 507.513537756327 503.468144022125 498.508113934782 492.181612891881 487.804127316163 482.513752154881 478.928598445144 472.090736149831 461.19702719338 461.929998187547 472.424240338598 477.127874618122 477.208392782848 476.851991853464 477.621150585752 477.628792647794 477.636754702849 478.501758505188 478.499528517102 478.493663312141 478.47775646277 477.173315678945 473.702839574357 470.192187964335 464.89826930517
-9999 -9999 -9999 -9999 -9999 -9999 -9999 -9999 -9999 -9999 -9999 -9999 -9999 -9999 -9999 -9999 -9999 -9999 -9999 -9999 -9999 -9999 -9999 -9999 -9999 -9999 -9999 -9999 -9999 -9999 -9999 -9999 -9999 -9999 -9999 -9999 -9999 -9999 -9999 -9999 -9999 -9999 -9999 -9999 -9999 580.68963519079 580.196981347189 579.787518401939 578.000762865999 576.678467627699 573.235364190307 571.932215206674 571.016250410677 569.707497818653 567.135340504699 564.927492088683 562.227596707147 559.993155002895 556.987597567509 554.792746179209 553.500408887303 552.107972445218 550.528425821052 551.24506967527 548.918172710351 548.539051005999 549.028026033422 556.549285514234 561.02250824984 571.145495100699 572.411333549892 574.799509227232 576.799204934244 578.788480669727 578.799795742386 -9999 -9999 -9999 -9999 -9999 -9999 -9999 -9999 -9999 -9999 -9999 -9999 -9999 -9999 -9999 -9999 -9999 -9999 -9999 -9999 -9999 -9999 -9999 -9999 -9999 -9999 -9999 -9999 -9999 -9999 -9999 -9999 -9999 549.296689843546 548.09911444508 546.190109199995 541.784922305679 534.978142291028 525.499767069581 518.300264204632 513.497023842383 511.081661920416 507.491866999669 503.997055911836 501.17851005885 496.758609902657 488.823287593492 485.593001210913 482.544225744427 481.013742338948 481.230311253245 476.477096632044 471.341954400603 468.911474564247 467.294170215643 464.910817758907 462.928858323099 461.856910230248 462.124066199952 462.532540562116 463.725301500919 466.412425953658 471.241707853528 471.270759586009 471.37209541053 476.118106555329 480.937186162385 489.1366834556 493.160650861635 495.995249286583 499.672649218098 506.584899735708 512.215472292309 516.288568375816 518.737510610142 528.14189632164 528.595939194093 529.79168086594 -9999 -9999 -9999 -9999 -9999 -9999 -9999 -9999 -9999 -9999 -9999 -9999 -9999 -9999 -9999 -9999 -9999 -9999 -9999 -9999 -9999 -9999 -9999 -9999 -9999 -9999 -9999 -9999 -9999 -9999 -9999 -9999 -9999 -9999 -9999 -9999 -9999 -9999 -9999 -9999 -9999 -9999 567.179739597818 564.092110259291 561.016857155613 560.171844269112 556.690639644093 553.956728356124 549.558880664581 542.202381862572 536.876992674629 529.895672414956 523.304223476627 517.596586707661 512.302730512162 507.858656481825 502.569831789254 497.361846762098 491.351721709084 487.240663428814 481.945378289613 473.055789066238 463.910603418467 463.192581915 474.621770284091 481.500773598107 481.997742394848 482.013708737837 481.646541904298 483.295820173494 484.19120885468 484.69215362351 485.083579959842 484.687579876923 483.799262218893 483.280173368299 480.693281368368 477.598210006873 473.682287753677 468.890029945051
-9999 -9999 -9999 -9999 -9999 -9999 -9999 -9999 -9999 -9999 -9999 -9999 -9999 -9999 -9999 -9999 -9999 -9999 -9999 -9999 -9999 -9999 -9999 -9999 -9999 -9999 -9999 -9999 -9999 -9999 -9999 -9999 -9999 -9999 601.296050665005 600.784000437703 598.184375551401 594.690157399178 591.602428349804 -9999 -9999 -9999 -9999 580.695944156731 578.905241728459 578.882908684117 577.971049660501 575.401702473232 574.485657819782 572.789744618516 570.592256990293 568.785294527092 566.630087479356 566.597742385241 565.683849613014 563.084824639831 559.219467829451 555.715846201356 551.388571154304 550.833580989121 550.776004850429 549.087810056404 547.693999150457 546.603432705906 546.21390394681 547.667359137769 551.343756499486 560.808976153 571.034249810309 571.187278369341 571.634879882923 574.013480120207 576.005743556137 577.599039775743 578.794457215581 578.800533356161 -9999 -9999 -9999 -9999 -9999 -9999 -9999 -9999 -9999 -9999 -9999 -9999 -9999 -9999 -9999 -9999 -9999 -9999 -9999 -9999 -9999 -9999 -9999 -9999 -9999 -9999 -9999 -9999 -9999 -9999 -9999 -9999 549.691143851079 548.484078835106 546.173427483015 540.971866257138 531.42495351209 523.514451829431 516.307958742177 510.716965644437 508.293645869853 506.278298087969 502.793395048721 499.959296485786 491.64222294628 488.400711429874 487.778707176269 485.679929174031 483.305427264167 480.813991785331 475.667194208348 471.293371903436 467.721092736912 465.700745825884 463.69419090596 461.412578044876 460.235644740144 460.219226974981 460.235544660125 460.643823230415 460.36581722217 464.210791207871 468.927216011308 471.75000520103 475.720161081186 479.757572977054 486.394496932332 491.200651581281 495.196355827541 499.264343848154 506.663754540017 509.86707731277 513.468877483762 518.313066397777 525.751494421831 528.581219444385 528.606090641555 -9999 -9999 -9999 -9999 -9999 -9999 -9999 -9999 -9999 -9999 -9999 -9999 -9999 -9999 -9999 -9999 -9999 -9999 -9999 -9999 -9999 -9999 -9999 -9999 -9999 -9999 -9999 -9999 -9999 -9999 -9999 -9999 -9999 -9999 -9999 -9999 -9999 -9999 -9999 -9999 -9999 -9999 567.186569074516 564.594995638298 562.387156297521 559.687218724739 556.195784953848 552.679720736013 547.874388469293 541.299287665391 534.6909089045 528.11890473164 522.024621084635 516.725137408044 512.290579568013 507.365083059655 501.34981117195 496.588521795582 490.393294578651 484.89353707104 478.888648096572 468.38330586394 469.199096406957 479.884409959824 485.420290827777 487.669771551549 488.189738740693 488.196988164251 488.597843722001 489.499575410044 490.789162701078 491.678113025267 491.673638951871 490.396920563993 489.491274713456 488.175705936832 484.702279439867 481.087352843805 476.291431335899 471.512923748126
-9999 -9999 -9999 -9999 -9999 -9999 -9999 -9999 -9999 -9999 -9999 -9999 -9999 -9999 -9999 -9999 -9999 -9999 -9999 -9999 -9999 -9999 -9999 -9999 -9999 -9999 -9999 -9999 -9999 -9999 -9999 -9999 -9999 -9999 601.286451688057 599.468281681577 595.586420357867 592.098080244598 590.771197626951 588.067812958885 584.197119938058 582.893171098101 582.384963357773 581.081017350652 578.872925188781 575.401214799339 573.604783891693 571.520996512074 570.116475307373 569.288795337621 567.096548174445 564.9003133659 563.605965099418 564.369439507386 563.971371892837 561.292681049811 558.270555713941 553.504861006802 549.178685189222 549.065699963545 547.274682760546 545.107556507467 544.194470843604 543.030093046254 543.061428772494 545.050533045333 550.543877384447 562.04738300792 571.936865710166 571.219341064946 572.80411706992 575.192677806805 576.406285780071 577.605246006603 578.403442907935 579.19722770599 -9999 -9999 -9999 -9999 -9999 -9999 -9999 -9999 -9999 -9999 -9999 -9999 -9999 -9999 -9999 -9999 -9999 -9999 -9999 -9999 -9999 -9999 -9999 -9999 -9999 -9999 -9999 -9999 -9999 -9999 -9999 -9999 549.691041220783 548.08697686409 545.382066257692 540.563422730502 532.174578243107 522.686846172896 513.529608461129 508.318811850446 505.115401064071 503.208862495499 501.195769822041 497.569255845785 490.448672123648 488.442803300629 488.787105274106 489.164034214933 485.574485238697 481.269444695351 474.082366128823 468.980266340552 466.875012426029 464.485609460869 462.105918430895 460.223087126767 459.119213040948 458.969785249111 459.28196853275 458.907461882328 461.399200328156 466.782324747907 471.214488783098 473.673621966013 476.873910392933 480.117296559587 485.566681990389 491.159345960381 493.627923563921 498.830784829669 505.091992566567 508.703054080897 510.373891318191 516.630057924717 523.44013074784 527.328134992203 529.750641021354 529.770466149947 528.597204510539 528.621273226177 531.437494268288 539.378892490526 -9999 -9999 -9999 -9999 -9999 -9999 -9999 -9999 -9999 -9999 -9999 -9999 -9999 -9999 -9999 -9999 -9999 -9999 -9999 -9999 -9999 -9999 -9999 -9999 -9999 -9999 -9999 -9999 -9999 -9999 -9999 -9999 -9999 -9999 -9999 568.89946420185 568.887743029555 566.798815260785 564.991910860005 562.776656102611 559.284074047284 555.297316116107 550.901039065698 546.088086846057 539.993733250232 533.401479680297 527.208928861676 522.010443911224 517.57206154992 512.598060527603 507.391624325178 500.632640681538 495.150899597192 490.338485286644 476.987323465451 470.224818793326 472.24868828721 484.291557621614 491.563663101578 493.825386897914 494.270372639043 494.295350362124 494.315706664639 495.206065786934 496.106178310504 497.391726552998 498.274750977661 497.008866860753 496.490275622857 495.571038780125 492.108381624561 488.595868757457 483.797071204853 479.004844385474 474.997258449259
-9999 -9999 -9999 -9999 -9999 -9999 -9999 -9999 -9999 -9999 -9999 -9999 -9999 -9999 -9999 -9999 -9999 -9999 -9999 -9999 -9999 -9999 -9999 -9999 -9999 -9999 -9999 -9999 -9999 609.17739525375 604.411574777338 603.463231198869 601.704160310878 600.786929506513 600.747010768017 597.219235677155 590.769482652075 588.93086255323 586.73002022706 582.879913734922 581.471915591051 581.455125900605 580.660445506268 579.264653220248 576.280578266462 571.931784644564 570.993261515439 569.68392083417 567.499988447019 565.698989295433 563.980172182067 560.915032897276 559.251382799236 560.871906581292 560.875923453328 560.828912855002 556.047905898263 552.075394301434 549.075572114399 545.984596057077 542.95681993392 540.769326666979 540.652097405647 540.668576568813 540.720647465759 543.459434346045 549.35437961827 564.045323350674 571.060152738404 571.216052536767 573.980307309077 577.976648597829 579.185501048327 579.194988266636 579.199996796352 579.596692043869 -9999 -9999 -9999 -9999 -9999 -9999 -9999 -9999 -9999 -9999 -9999 -9999 -9999 -9999 -9999 -9999 -9999 -9999 -9999 -9999 -9999 -9999 -9999 -9999 -9999 -9999 -9999 -9999 -9999 -9999 -9999 -9999 -9999 547.675549841712 545.755321927532 540.149362477456 530.206291621675 521.093843613655 510.761830117676 505.933419814788 503.215152035849 501.599266367003 501.145046959513 495.577487165573 490.018924676212 488.823621685067 488.815614668009 488.794835495616 486.757207830427 480.081111719539 473.357095140311 468.939018110882 466.132030842578 463.72023744765 461.517358354603 461.372336211554 461.378655366762 458.753708137458 452.129930711999 453.150241203047 459.767490975676 463.729644536057 469.653564355574 473.677628128178 476.100522352353 479.298318780621 483.611274049566 489.170917706833 494.004889586167 499.589239890157 502.834408039342 506.731872726241 511.0618447034 512.750774265064 517.889720220017 520.335244242379 523.120382471787 525.504447491328 527.40708018145 529.427564071215 534.988004924511 540.187657884012 542.993175609401 -9999 -9999 -9999 -9999 -9999 -9999 -9999 -9999 -9999 -9999 -9999 -9999 -9999 -9999 -9999 -9999 -9999 -9999 -9999 -9999 -9999 -9999 -9999 -9999 -9999 -9999 -9999 -9999 -9999 -9999 -9999 -9999 -9999 -9999 568.907030178569 568.495562469675 566.800458668119 564.986232029519 561.887649770359 558.391982340902 554.881089626 550.468516151171 544.391091222874 538.685522188834 532.100930123073 526.792169179949 521.97825256947 516.577274682871 511.40681063018 505.830908676147 499.576262112869 492.413425945998 480.915626644342 474.481749555546 484.127167020457 489.644396048227 495.981094129277 497.783943553791 498.715769742984 499.614135119182 500.890828613923 501.309220136302 503.073203777139 503.489206213002 503.992083104346 504.863555222107 503.491136802516 502.675337912493 500.490427849337 497.385735213648 492.09463012783 487.285496936575 482.497951227714 478.116683737783
-9999 -9999 -9999 -9999 -9999 -9999 -9999 -9999 -9999 -9999 -9999 -9999 -9999 -9999 -9999 -9999 -9999 -9999 -9999 -9999 -9999 -9999 -9999 -9999 -9999 -9999 610.998614862269 610.996695768175 610.973876146636 607.384119940577 604.336584063922 601.713288280255 600.017633581365 599.475194529638 593.059264986088 589.035492449644 581.416064075154 578.68216454381 575.963238135971 576.305013926902 574.121293991448 574.96021129493 574.077470628912 574.439371040573 573.118364595681 570.911480383521 567.482995072525 567.086087051003 565.291891918957 562.689027902909 559.993566596343 557.405667227364 556.490283976954 556.479397818816 556.466099381838 555.154480944009 551.285288708232 548.563905012712 545.96771371116 544.137526109185 541.176302894637 538.935761622851 541.355194730416 541.373035552196 541.393997648963 543.428051508081 549.364554845159 558.872782823305 568.286654203117 571.099472762577 573.192051764246 579.956077861044 579.991569212752 579.990514620546 579.989448297941 -9999 -9999 581.98667019362 581.189979892766 579.604040745497 -9999 -9999 -9999 -9999 -9999 -9999 -9999 -9999 -9999 -9999 -9999 -9999 -9999 -9999 -9999 -9999 -9999 -9999 -9999 -9999 -9999 541.399465800524 541.399467579912 541.400535901145 -9999 -9999 -9999 -9999 -9999 545.797465098798 543.794654962119 541.306371982983 529.387698321988 519.108056865605 509.563730395814 504.4424919267 502.402410723104 498.864336972329 498.374786777603 493.539077365441 488.947604838207 491.180309117648 491.186564574081 491.15287860902 485.163467641934 478.503555188577 474.488487136953 470.879804131082 467.676227363699 464.505016702649 461.464743989402 461.416773973442 461.373754002396 459.747267322313 451.332985517307 450.743934909429 457.346470641931 461.43679776438 468.074335623997 473.243066500953 474.895294325469 476.937230749276 480.928735940371 488.343891695515 493.590702403531 499.946004083994 503.93523525255 506.276443685085 509.064279515162 511.155576590383 515.91312166978 520.66864940301 522.715101484612 524.716680885658 527.009129544034 530.225961302315 538.14391901207 540.993103818192 543.787060567516 546.595789827365 548.892004133122 -9999 -9999 -9999 -9999 -9999 -9999 -9999 -9999 -9999 -9999 -9999 -9999 -9999 -9999 -9999 -9999 -9999 -9999 -9999 -9999 -9999 -9999 -9999 -9999 -9999 -9999 -9999 -9999 -9999 -9999 570.697442712396 570.690722157507 570.678576648338 569.383470249426 567.178510609705 564.096614732547 560.99361539695 557.102368251545 553.970855294442 549.155846950083 542.590137197747 536.874541161006 529.930012942208 525.01253640178 520.908761006381 516.221373918274 511.059645844341 504.834196457599 498.208099223963 488.179369133334 478.717515878014 488.087833225899 495.491346382699 501.183263173926 503.450653555431 504.876026564593 505.306984855185 506.218099843211 507.906682456471 508.816301697883 510.094152867593 510.587006953657 510.582431366507 510.086960868409 509.671599444377 507.872814660196 504.395022959306 500.473867703111 495.182200514583 489.901847267782 486.87509424707 481.604727858555
-9999 -9999 -9999 -9999 -9999 -9999 -9999 -9999 -9999 -9999 -9999 -9999 -9999 -9999 -9999 -9999 -9999 -9999 -9999 -9999 -9999 -9999 -9999 -9999 -9999 -9999 610.515467563552 610.989660928797 609.182199592617 604.790019122805 600.101746499024 599.154783969724 599.114926865748 598.92755511607 593.840527162087 589.982914708562 590.689074073406 590.655897125636 581.63472639655 569.584849437903 569.127041161871 564.70863476396 566.593529598337 565.296137604278 560.582063367488 559.28499275333 563.566143459139 564.872040197673 563.559632279808 559.182594168326 556.063907961972 553.463730773279 552.071132659227 552.033397454286 550.351912203012 547.770479464995 545.548400988661 542.832458656802 539.77569806194 539.716939914788 538.645562563697 535.456464140184 534.600077575176 536.590290191214 541.340711272278 543.410743229333 548.862738782064 556.006376815604 556.982182021533 558.70442770618 573.557204831259 579.562792043881 579.989437443786 578.809912516631 578.805008647965 578.805408081074 579.991656667765 580.000935500362 579.999133837042 579.205342699713 -9999 -9999 -9999 -9999 -9999 -9999 571.197755048313 571.18400331853 568.789511193135 565.295232422132 561.303195919946 558.091279969581 552.514683562942 548.908770299508 545.805915491688 543.005009699678 541.008884709388 -9999 -9999 -9999 541.398294197489 541.397231064679 541.011785642476 541.802770516112 -9999 -9999 -9999 -9999 -9999 546.18325797051 543.762255649634 538.907541805114 528.590842234919 518.654483585651 508.746240666959 504.024433965667 501.603915634083 501.14741233184 496.785785565479 492.151162264205 490.11596154088 491.205060748327 491.197001522548 491.113604570266 480.943053406589 476.531383118214 473.709902454192 470.905119948493 468.475061840355 465.290882619908 462.908368137501 461.425238597608 461.346567636129 458.533828433782 450.671857558233 449.275053254205 453.050603190186 460.932091015765 467.22721504757 471.235984848518 472.527379373424 475.698651054325 478.922593707939 484.412787327193 491.185438079883 499.528309235038 501.980149830953 501.29956092492 504.080170394103 508.807618635081 516.699702965413 521.090060160108 523.878071472164 525.505061417479 527.411824011446 530.245103032844 537.761385846662 541.394438986365 544.586309514465 546.981955954062 548.890506942806 549.691256425748 549.205650789909 550.892959658957 -9999 -9999 -9999 -9999 -9999 -9999 -9999 -9999 -9999 -9999 -9999 -9999 -9999 -9999 -9999 -9999 -9999 -9999 -9999 -9999 -9999 -9999 -9999 -9999 -9999 571.593711407126 570.699996777228 570.688274278889 568.916315473863 569.388597419593 568.089938708396 566.773566417275 563.680367912228 560.187127054449 556.193152811544 552.256381638799 546.086727607141 539.994569199794 534.283959259333 528.601086971731 523.570078650083 518.937675157584 514.616380247707 508.807345982405 502.175369092291 492.122630848254 479.971921264291 483.81814070643 495.381313229834 503.896138883724 506.987657957734 509.694493040652 511.39798465754 512.794452830286 514.106981673415 517.547761205573 518.453141705291 517.976702274535 517.578710668866 516.291236170782 514.902049683439 514.476972568557 511.401952179939 508.391235689154 501.330133611789 497.399664497827 493.000417198109 490.736237981074 484.198257277356
-9999 -9999 -9999 -9999 -9999 -9999 -9999 -9999 -9999 -9999 -9999 -9999 -9999 -9999 -9999 -9999 -9999 -9999 -9999 -9999 -9999 -9999 -9999 -9999 -9999 615.297331667358 612.698660413142 610.100556747895 608.263903629755 604.762133672851 600.467078766221 599.156505893888 600.785815869912 600.772476947058 599.443876232051 594.990969506092 590.786723817802 582.773434735545 569.770123892819 574.450218207399 570.98885358466 565.640790896922 559.544806552252 557.963714570648 559.883482518785 549.532092091698 560.777538954656 561.737091521819 560.814615824384 555.143646040259 549.107209062836 547.22420787449 545.045195970134 545.449276191077 541.557877319898 538.966104932922 536.751773832508 532.821587151204 531.136174499578 531.302931038355 531.500819941097 529.340732428088 528.827407898557 533.07256918371 541.322972098225 540.256026180909 542.721132490248 548.588839248691 551.475573177838 562.533266650685 574.336440940495 579.1598250766 578.805060789977 578.803407016361 578.800006428987 578.801906847771 578.805810552953 578.81301622415 579.991153469234 579.199631879761 578.00333951592 -9999 -9999 -9999 -9999 571.197120756335 571.18453930859 569.582390076813 567.680362888291 564.48797533476 561.289946935709 557.686217809526 553.299494617654 549.695096382278 546.19980109803 543.004612059209 540.615092682569 541.385615179723 541.386675483542 541.386676507677 541.385615603305 540.218127502465 542.586882774816 543.786141248131 -9999 -9999 -9999 -9999 -9999 546.188906580852 542.184934949103 536.545261184828 525.134790926495 515.543551531998 507.555672444534 502.839802084875 500.80402301897 498.825421112509 498.320284459508 497.114310307853 494.421473931497 492.813043530853 491.183781283882 487.549156239704 479.338239148974 476.881668607104 474.07043030941 470.891589539416 468.09142722802 465.306391055316 463.676820895546 462.085871766691 461.308251089149 456.904704604477 450.356503507954 449.046803232493 450.292620336469 458.144616997398 461.845581698609 466.892561802374 471.656259043426 474.094427625258 476.529999857052 480.536653469455 488.383080299989 496.302275108752 500.947184575801 501.180089053942 502.917518548382 511.142161344995 519.463551481371 523.466247785695 525.103270476358 526.23061254171 528.617959996677 531.046404466912 538.168209610076 541.002085861426 543.791703951077 546.590852878342 548.875550263574 548.903298794459 549.201312919191 -9999 -9999 -9999 -9999 -9999 -9999 -9999 -9999 -9999 -9999 -9999 -9999 -9999 -9999 -9999 -9999 -9999 -9999 -9999 -9999 -9999 -9999 -9999 -9999 -9999 -9999 570.703431409199 570.690845631309 568.91526089966 569.384790423554 568.076265906808 565.899058864609 564.097223066083 562.77101118858 559.265415900404 554.86875090564 549.562677372862 542.607305873245 536.903548356942 531.213409733025 525.848433912552 522.699234380934 517.708088940957 514.025773543305 508.355560369494 499.813164883124 485.457716362133 488.800231687981 499.267684332728 503.388333687733 508.745616627952 513.583447154969 516.65785037491 518.468654435116 520.664905615522 522.775003082705 524.573721075431 524.983368761895 524.590458640125 524.174027167606 521.98964474445 519.80620539609 519.278806155313 517.080283825026 511.880578828397 506.159899945719 499.590290554257 494.797023619435 491.183595805857 485.998454551196
-9999 -9999 -9999 -9999 -9999 -9999 -9999 -9999 -9999 -9999 -9999 -9999 -9999 -9999 -9999 -9999 -9999 -9999 -9999 -9999 -9999 -9999 -9999 -9999 619.690294764308 617.974416207632 613.591248072484 610.106619192592 607.903004957636 604.826299038243 601.354750255598 600.797499823804 600.769827734828 600.752389788962 595.900562330637 592.120941598547 583.37508951938 578.669179864107 579.780147887541 580.659609599666 578.45797603486 573.577894903383 570.951563091365 569.189689865608 556.899629025164 549.489861936879 550.389228179982 555.613274051531 552.583027943357 548.578569008366 542.025408116858 536.452151913319 534.685416402338 531.634213476527 530.662842887028 528.082028992769 525.861523383425 524.139638311195 523.157352421795 522.889555236353 521.625339859784 520.842318412873 530.753196387258 533.374248926804 536.185599910132 539.068856188907 543.493355057604 550.101789386914 558.88405475795 571.077557503775 572.414585967442 576.777892313212 579.970574460459 578.808303230539 578.811079702591 578.809914233781 578.8034119197 578.806713474557 579.990515877413 579.590580829247 577.991296426387 575.60087242752 573.604626454896 571.606242216832 571.197758218278 571.182837031005 569.185198732667 567.285679664218 565.277914363118 562.492321782969 560.082176238269 557.267702173733 552.889261150316 549.692588025236 546.588226650075 542.616515821737 540.220825381945 539.023896665144 539.01332507823 539.013324262659 539.024460002565 540.60537645712 542.20040009586 543.406267788506 545.392748871682 -9999 -9999 -9999 549.688908626923 547.675259706526 542.181708481686 535.342018649824 525.467668415518 514.714353723999 507.148335988846 502.810518083776 498.870660612252 498.804554687087 498.785192852082 498.788505157344 499.95714405939 497.551066940366 491.162658345972 482.92051755822 478.118178916524 474.512815370384 472.495385493652 470.086147294467 467.290421831612 464.900016560946 463.280970329066 460.981919281032 458.93153668935 453.800198431909 450.237248167689 448.839299757247 448.370906411175 453.4421434101 459.018436359966 464.107954845019 469.255059846764 472.470084046143 474.884970764124 476.952936944764 483.308642549987 491.056457554688 489.125120280812 498.429527826582 508.217842963185 514.254854086509 521.429712681383 526.121821091869 527.374599908145 528.58333636118 530.979993505757 531.890148918358 539.317796327738 541.392923009298 541.849531329604 545.419207744956 548.48362695569 548.902812099516 549.20308955804 -9999 -9999 -9999 -9999 -9999 -9999 -9999 -9999 -9999 -9999 -9999 -9999 -9999 -9999 -9999 -9999 -9999 -9999 -9999 -9999 -9999 -9999 -9999 -9999 -9999 -9999 571.60233108617 569.815474289278 568.913185615407 568.098479925055 566.304384527663 563.713377947556 561.045344275209 560.969007891081 556.696539160676 552.273869714472 546.075758272094 539.118518798818 534.285188827607 528.85953489124 524.602924577699 521.12529867571 514.939636762535 511.850895510402 506.391023094618 495.588426744136 489.184863673358 499.099576275373 505.65169964404 509.713291964374 512.851125319915 520.947230490829 522.368642854784 523.705468141788 526.788152683144 530.279356670995 531.203045352371 531.216334744943 531.594396802054 529.903308825001 527.213228662268 525.887638747628 523.688884957459 521.065764616074 514.858849061996 507.489541376297 500.036072504974 495.220625167021 491.673063897842 487.272017429417
-9999 -9999 -9999 -9999 -9999 -9999 -9999 -9999 -9999 -9999 -9999 -9999 -9999 -9999 -9999 -9999 -9999 -9999 -9999 -9999 -9999 -9999 -9999 -9999 620.978355389956 617.972298397834 612.719960232278 610.977691789227 609.574223404936 606.960836323844 602.239492952639 600.79913265742 600.766664514535 596.868135627716 591.684472617028 587.440356329732 587.28155138646 589.827882647352 586.370855923894 583.288728039106 580.676013416759 576.271248470342 572.263130688393 565.295078757719 557.374896062395 550.771970495219 543.957025885124 545.111398672568 545.941457184127 542.810349419879 535.839862628158 531.915443347654 529.684069745973 524.597796119446 524.892797125679 523.205953869716 519.728011128695 516.617393863311 517.092326127799 518.740231543859 520.881394921775 519.162633056518 526.549189110454 528.723087063484 536.554193187599 544.187044692545 550.538812725443 556.873616217424 562.547586446023 571.143100204055 572.026657426723 575.582722483707 578.367071000713 579.584997688239 581.172280576852 581.177824088865 578.816619478709 578.809915091297 579.989978919808 579.587406747113 577.591427494626 575.202735046367 573.1991726673 570.826376286442 571.17978182653 569.185929231951 566.886120747449 563.710476527014 561.329239688497 560.092353324085 557.675221343618 554.091502893651 550.520540105374 548.88912446024 546.578351496412 543.000643002052 540.610518247195 539.023556480124 539.003414324076 539.000210717748 539.016049802936 540.990700026015 542.589689663379 544.183754535113 545.394016821938 546.987738098571 -9999 -9999 550.481551907647 547.673332273268 542.574849407378 534.559742187394 523.110635308231 513.948192943494 507.531072118865 502.447640604569 498.888623673492 498.82392858724 498.814417055127 498.821412143007 501.154901811063 496.351082322414 488.392836298453 481.707789730196 476.509533394171 472.530116867 471.26383274855 468.455680792209 465.282432287428 464.060221511218 462.061667527916 459.733624305347 454.588551161407 450.263191876678 448.992257783114 448.476241691727 448.071657509045 451.058145089946 458.133338319036 462.084643395743 466.088859431639 469.677830499655 472.454290084883 473.710137077704 477.715158500618 481.42801196886 489.255748668079 501.124128953149 507.468632824954 513.068756398015 520.309040016943 530.917939167343 528.642045662692 529.826389032896 532.234440002314 536.185530763539 541.368579080272 540.64635974743 543.420010913638 546.972333214715 549.290935807421 548.91898016077 550.887529140224 -9999 -9999 -9999 -9999 -9999 -9999 -9999 -9999 -9999 -9999 -9999 -9999 -9999 -9999 -9999 -9999 -9999 -9999 -9999 -9999 -9999 -9999 -9999 -9999 -9999 575.4978768271 573.798319816251 571.106718542654 569.799813275035 568.105092018494 565.895128337664 562.819763542093 561.004460770472 559.246708857698 554.029817198344 550.842080590645 541.360887475798 536.029319731708 530.718923869942 526.79497054572 522.90360323097 518.463210051733 509.982607363787 509.429669586484 499.760148613038 490.440084503939 499.484258951731 506.567232753039 511.413560036958 516.62371514259 519.771647438522 522.102182322304 526.776798485621 529.382768202723 532.882688335812 538.671295261016 541.254038485055 540.779576134355 541.257183608351 538.673962048301 534.691995041614 530.789240336974 526.389950639091 521.967067197215 516.633412654823 509.166789092259 501.800089362201 495.592940763894 490.764851972436 486.338215546899
-9999 -9999 -9999 -9999 -9999 -9999 -9999 -9999 -9999 -9999 -9999 -9999 -9999 -9999 -9999 -9999 -9999 -9999 -9999 -9999 -9999 -9999 -9999 -9999 620.981978212647 617.091826546076 612.353178613857 611.023040925508 610.944906617341 608.728325336124 602.656863142601 599.251168038471 599.074563105145 596.015970159551 591.343757064292 591.576747772535 589.931480882602 590.778103213649 587.681221437552 583.701316715505 580.678635362556 574.523367246603 570.982604538149 563.657337525353 561.775477672551 553.506837308392 542.623969014126 539.006346916904 536.533399938726 531.951659759694 525.104748183172 522.523057032637 521.467310460017 519.252978198138 520.389742329417 520.849758857369 515.070376374865 511.4871391956 511.064185987297 513.490593199937 510.3576573264 516.023045317375 520.780121088358 529.350055508081 537.354590330641 546.180920645472 555.239458301363 562.47352811422 569.130348075218 571.945009106069 572.787712803394 572.819582046483 575.19446979635 577.195125635357 579.576740820531 581.173773541764 581.169512705234 578.811107013451 579.98112978624 578.788146132788 577.189117940636 575.190722626288 573.186096607189 571.189039054209 568.807373457261 567.283378864083 563.709076100725 560.938308596798 561.256731592491 557.666103822776 553.326977693856 550.534149971787 549.687242148061 547.29911663631 545.003539615401 542.609604661625 541.011006026732 541.377403448117 539.009914179963 539.000107622974 539.015610788971 540.98745870843 541.801531820689 543.004301906815 544.59763044369 546.190740769036 -9999 -9999 550.478781244846 547.283803959996 542.563154596955 534.551632475297 522.326477525324 514.3243809086 509.101425442641 504.418914451887 501.227929918861 500.020164289627 501.181882854517 501.182722223241 501.136148669024 491.612365819203 485.620656782173 480.512186397789 475.708063940073 471.330358711368 468.504285680295 462.992418946803 461.057198236427 460.604723873815 458.991239551002 456.542387276936 450.275259740951 448.219187443771 446.223311696398 445.082090124011 446.063738148715 450.23757180965 455.395952106814 459.034095822099 463.665296528818 466.489824455867 468.00535829517 468.978772631476 470.424157947756 479.799050226703 491.97682163581 502.312162268854 505.517042910125 508.794340299124 519.506121725278 530.896160914888 531.404209573902 532.227743535495 536.160809575148 539.769867912673 542.195232167206 544.586462670602 545.395453645157 548.094105782075 551.272922890063 551.288909280065 550.898828515159 -9999 -9999 -9999 -9999 -9999 -9999 -9999 -9999 -9999 -9999 -9999 -9999 -9999 -9999 -9999 -9999 -9999 -9999 -9999 -9999 -9999 -9999 -9999 -9999 -9999 578.187658954128 575.994987926619 573.303038469944 571.603136800804 569.379729524504 566.303294840038 562.81248765465 560.96677530877 557.100634076206 552.344583738863 549.15029089046 540.433757146879 534.184956400775 529.073261835552 524.727059942974 520.311787879131 519.662374023552 514.132024452724 510.938633577059 500.274855309147 496.342125237473 506.527554777771 513.169730480703 518.46817196749 521.994916742234 524.248974501132 528.898051761354 531.165012792843 534.264118209293 537.797882335388 544.377709920081 548.767475617724 550.067046700879 548.77046042653 545.667476492283 540.376415243601 533.77791039292 526.806999906118 521.971150023508 515.395504312121 509.186999286299 501.312168208343 493.915883789717 487.710837510874 483.836757967934
-9999 -9999 -9999 -9999 -9999 -9999 -9999 -9999 -9999 -9999 -9999 -9999 -9999 -9999 -9999 -9999 -9999 -9999 -9999 -9999 -9999 -9999 625.398502682511 621.91304880669 620.98501247481 617.9355834037 614.537282065892 611.067918276686 610.981599528274 609.140018288977 604.426879767246 601.371331613663 600.789309865168 600.756384866341 600.741596183517 597.275203891236 594.678580008834 591.19730305966 588.088696311048 583.321988975188 580.677695974391 575.00856786712 569.353856043961 568.776327268257 566.170761742015 562.129313359332 551.228664039055 539.857633061426 533.826189830475 529.32038209836 522.613657482367 519.363835622315 517.954885796027 514.365935025832 509.592312280298 509.987116689723 508.821963119233 507.838856197623 509.879716305367 510.815654838904 509.184314184504 510.304210540501 521.042950076789 527.452862037481 536.624501969853 543.462008362485 558.698914094217 567.12433136503 571.120541268179 571.190999124056 571.987350133453 571.223616320272 572.021794602661 574.788002317197 576.783551153677 577.983317833409 578.785508783187 579.180264253355 577.987794696011 577.580974802293 575.987318478169 574.386585986481 572.390189975356 570.389279081639 568.079677840532 564.11644406981 561.3236237118 561.260139537183 558.047417262183 553.716705797784 551.29802039098 548.921582135383 548.089071565093 546.194652419319 544.192761335873 542.203504318129 541.000975279001 541.376769870836 539.009914808482 539.000106051335 539.010075135929 540.194337755808 541.004238529885 542.593330019038 544.182317646612 544.21246495591 549.260340078497 549.68173962656 548.895093361104 548.459265270429 542.54243212664 532.979268483739 522.354389262561 514.745819073921 509.942134704521 507.09147152758 504.000418600352 502.416413548391 500.031702056502 501.176076971286 497.158245678977 489.617524227688 485.195678859758 480.502508505194 475.717782314362 470.957537551434 469.253208122107 462.567278270681 459.065011156086 458.949569714151 456.154434478682 451.424672989014 448.605687532756 446.209898971762 444.954352030046 441.686901530616 444.853156933496 450.176823169765 453.763450776961 458.537944084393 460.228568136308 461.034825452046 462.326430592719 469.25302248748 475.598052847399 486.263757679175 493.614532098251 501.933651767618 504.811793790743 509.548657007878 519.53522611071 529.768134036911 533.762938299922 535.384524782248 537.394663036306 540.190025727984 542.60474356351 544.976665486794 546.985553927317 548.89458616552 551.275805947801 551.297755390169 -9999 -9999 -9999 -9999 -9999 -9999 -9999 -9999 -9999 -9999 -9999 -9999 -9999 -9999 -9999 -9999 -9999 -9999 -9999 -9999 -9999 -9999 -9999 -9999 -9999 580.792748880923 579.498629008064 578.589341069902 576.789690501829 573.803018340709 571.088929378112 568.046860257688 562.448531556435 559.336982206999 557.093797219013 553.074247933896 547.854268322065 539.882696205902 532.327928990416 529.092874229023 525.028926773508 520.821933474026 521.072937518698 514.816706867478 508.639655935789 498.815261658476 504.44533922224 513.149084423374 518.888318181521 524.165335125822 528.524511912351 530.746638211073 532.120197795561 534.703728291665 537.78559862896 541.303727830078 548.774271530408 553.075745459492 556.141035085913 552.673014360169 549.15182644388 542.157976941669 535.075992848366 528.061960865515 521.496436864984 514.909380716592 507.910168267041 501.271279808144 493.811562432111 486.46511927764 481.055003308488
-9999 -9999 -9999 -9999 -9999 -9999 -9999 -9999 -9999 -9999 -9999 -9999 -9999 -9999 -9999 -9999 -9999 -9999 -9999 -9999 634.188375243935 630.299407434571 627.178125188482 622.788751116981 619.324556033706 619.285950521102 617.425124130389 612.729341975823 611.012962331684 609.210373421809 608.228820932596 604.409044972741 601.761505237772 600.836839665916 600.805851133472 598.693464832309 595.201463715769 590.832844853569 589.384518234262 585.088462287885 580.679696780753 575.045034837546 572.796310408996 570.992717853387 567.075040637074 561.778328723252 554.77259036588 548.931798495104 538.378222460403 531.151914923987 529.235508139377 524.11017043619 517.607083806987 511.45316112598 509.094337075044 506.608635081751 504.020680714042 502.754214781667 503.890010048794 500.934371940222 508.858359975333 512.301025113562 519.893098231162 530.928171974737 535.778667399056 542.664257783834 549.083490314998 560.157774059078 571.133546662425 568.821122246488 571.17407945298 571.184024683933 570.041390497689 572.010011351927 573.199945115195 573.613424419208 575.592099887552 577.173267411302 575.989356820922 574.402842164051 573.986960821998 572.788220382119 570.800329820812 569.572394701503 566.872002037589 562.535168181842 558.974861384177 558.481816325689 554.501708357345 549.008114388926 549.294523620455 548.086405393206 546.581127615003 544.602587967777 542.998803203044 541.406404731538 540.210043499089 539.031075582192 539.003613322981 539.000103051273 539.003107082846 539.02234607147 540.598836604733 541.404465172674 542.975819790019 541.831966748305 545.779018068483 547.676010935038 547.012955326814 549.237634009973 540.97851906083 532.586276875174 524.299898056433 517.52025940377 512.71792659855 511.083154795146 506.285771855292 504.405357329317 502.394166320348 501.156915465181 492.818804200127 488.019524389415 484.794101840123 480.89503297704 477.665467828809 474.058252997753 470.026975974995 464.839457924387 459.373357585085 454.982171374819 451.061778693664 448.614114374069 445.824970916461 444.582906220716 442.84511490015 440.194465445089 444.096425320911 449.471699300484 450.339277699517 454.201767942022 458.860323216238 459.173240714038 462.24115950422 468.945305945483 473.476813687801 485.609272176757 496.294463672372 501.926880667258 505.1235712472 510.745227445035 521.480863203652 530.580677137257 534.957805181711 537.354133485914 538.595593820672 540.595864465476 542.591939802226 544.595039493456 546.993927253724 548.897892953153 550.104208086512 551.304371398973 -9999 -9999 -9999 -9999 -9999 -9999 -9999 -9999 -9999 -9999 -9999 -9999 -9999 -9999 -9999 -9999 -9999 -9999 -9999 -9999 -9999 -9999 -9999 -9999 -9999 580.798183627403 580.784182769062 579.014621289652 579.47060723415 576.368682129099 571.98968821806 568.088402388381 564.563822514122 560.968073509824 557.058911267472 553.071281369993 547.651125078621 539.316715713174 536.048657021989 530.822025190569 527.700826179889 524.935366352828 521.478387762319 512.270897419152 500.005052063296 503.379170117417 511.345576499545 519.702028357427 524.951539619621 528.986131104471 532.482161887451 534.694795458234 536.494274530189 538.222065318881 540.828590583717 545.178786251524 550.07169940482 554.854525702425 557.423565281514 552.654125082521 546.080265913179 539.504150117204 534.628368665703 527.684325254687 521.486094149633 514.485457987064 507.469972915293 501.137020514652 492.656490518924 484.229602574078 478.369440423722
-9999 -9999 -9999 -9999 -9999 -9999 -9999 -9999 -9999 -9999 -9999 -9999 -9999 -9999 -9999 -9999 -9999 -9999 -9999 -9999 635.467691937135 631.066461878626 625.893209601917 620.25701545794 620.982432412152 619.300312006369 618.333804911911 614.050555071154 611.471883254346 610.980502474408 609.213497273928 609.175593857119 608.274651612422 606.579258251278 603.886694519588 600.775438518585 596.488912023231 592.513302882571 590.760771860765 585.898302871456 580.230309164674 577.209207995679 575.395379499036 572.258662036294 567.879951615875 560.50030493246 554.774106698866 545.132402411823 538.144439916335 533.702487859853 530.53114190537 525.80839182245 519.243144812212 511.029729175963 508.92415784507 505.23328394639 501.805402024315 500.450845732282 500.648925191854 500.211334434198 513.963925757299 520.08324461065 521.99797385528 527.883969623644 533.488321410194 550.81667800395 561.198909258147 564.849979375948 568.737000568903 566.139724205226 568.782478965846 568.797124474695 571.178220823503 571.193523154524 570.42341319312 570.44469447866 572.412216287047 574.375951175552 573.589061973749 571.630073853344 570.830370902298 571.177193937673 569.180732643754 567.27811336024 565.274248325103 562.878212409197 561.197307398579 556.075076340174 551.725877603892 549.689624563962 547.291670411633 545.81268742591 544.599992416371 543.005271781211 541.800741202931 540.614537424651 540.184397681318 539.032303136527 539.003512311673 539.000001779636 539.000104436941 539.010645879246 541.371129487551 540.204243037085 540.599417422321 540.241902977631 541.843891644262 544.99505294019 545.797959209464 547.635377972321 540.971935082556 532.202057226865 525.132599228322 519.917995930468 515.890260907811 510.347034571707 507.910790926703 505.050031874028 502.386477495018 499.13362040641 491.23219214099 487.213125586598 484.396338292075 480.905568120202 476.924437900273 473.709010397769 468.892905772544 461.472454508632 457.39786057297 451.835590418212 449.000231205618 446.586320801563 443.43160265915 442.902758128578 438.917661274769 439.367100450093 444.279326409056 448.912362841685 450.985708452472 453.839317224961 459.444404529626 461.825168134164 467.579346778943 474.119982779259 481.257648075583 484.629857695073 495.194862570674 501.992923406977 505.936168838479 512.342010673613 521.542828904291 530.529610627052 535.382430633081 537.052955464876 539.760164897032 541.388096886388 541.450645082426 544.214373631326 547.000180302332 548.896728331575 550.502439863531 552.89301780227 554.492214237124 -9999 -9999 -9999 -9999 -9999 -9999 -9999 -9999 -9999 -9999 -9999 -9999 -9999 -9999 -9999 -9999 -9999 -9999 -9999 -9999 -9999 -9999 -9999 -9999 -9999 580.796437129345 580.777556742058 578.988309568364 576.381530732258 571.105923365112 567.602311741609 564.587701887562 560.951876891612 555.307338623427 550.54032769278 548.235994505794 542.322256899356 540.003444758538 535.042147621787 530.23213949515 524.952735269989 519.03649931533 505.633924384349 508.417173726113 513.220134358944 521.351539624792 524.194140815649 528.592664720627 533.372350866567 536.488343448133 539.071180309957 540.411102921889 542.221124045127 545.206591055303 549.173644400466 550.916668073871 550.948179798069 550.918683888345 548.783840140596 542.991492918511 536.896499261632 532.477036163432 525.927265127101 519.792362100867 512.747117947282 505.165004390377 499.550180695876 488.990864359174 482.391484375212 478.943266150544
-9999 -9999 -9999 -9999 -9999 -9999 -9999 -9999 -9999 -9999 -9999 -9999 -9999 -9999 -9999 -9999 -9999 -9999 -9999 -9999 -9999 628.892820888472 625.014251261809 620.66767148041 620.986569277845 619.335949707893 619.277401972872 617.102390667962 614.90215908469 611.49076167283 611.431957592075 612.688789442208 611.391851385695 609.186475796061 605.189963407232 600.806455851507 597.297563450921 593.79716345494 590.300293234328 586.791833257616 582.40376357347 578.514603153877 575.804842548768 572.316722472166 567.46621447262 560.509933728505 552.6082403358 545.166283263215 539.073785395615 537.620585532011 531.903236443656 526.911824614402 518.83607447509 512.645230828 510.746087187456 506.457171701766 501.438574803355 499.765138106236 498.825858437921 506.491773053102 517.842763065725 526.184607195738 530.991977065034 533.362028105251 541.403094408376 543.199791856346 561.23437194219 562.895691947957 561.773195206118 566.077454765999 566.886383199071 566.171817015402 571.162597737193 569.971749266122 569.566421651826 571.180991158109 571.2087326623 570.825203730792 570.808966118719 571.170794214683 571.139324353115 568.049029738217 566.079537048597 563.710866170118 562.509955587057 560.899367112746 558.459408950785 553.307774152191 548.966246365143 548.09315109619 545.81159504795 544.207068954343 543.000676842934 541.417377621484 540.61768201777 540.208885330507 541.379005123551 541.368560859811 539.006712886235 539.000103008791 539.00000178863 539.003406195524 539.010011175935 539.014251232418 539.032689357759 541.38674715398 543.381126175801 544.195193705719 544.200719354458 542.604545104721 539.394305476989 533.411200613498 528.558084855789 523.062157441417 518.233968599294 512.683535300799 508.288035651598 503.261022350921 498.870716536495 496.004263187287 490.040596488796 487.205815918173 484.395344065019 481.310968984108 478.89251603936 475.269809344315 470.049461069553 462.095803277358 455.395127775056 449.103751523703 446.623451289352 443.451466298028 442.172141031726 438.724708931284 438.500616871478 440.315361309017 445.754892092289 450.539753232011 453.358395786085 456.255165357493 460.906308219699 464.450693186747 469.340676943595 476.100430806335 484.916521025412 494.608899149993 501.097463963302 503.233217166276 507.936697723756 513.986483832802 523.071522881533 530.985788313416 536.177586233312 539.379997411424 540.987470846626 541.039939193938 543.004624048917 545.400608808971 547.688150653148 549.295811255 550.907870232251 553.686530229826 555.293389008069 -9999 -9999 -9999 -9999 -9999 -9999 -9999 -9999 -9999 -9999 -9999 -9999 -9999 -9999 -9999 -9999 -9999 -9999 -9999 -9999 -9999 -9999 -9999 -9999 -9999 580.792071420262 580.771659492955 579.439270044552 575.06914848416 570.312355911377 567.190378689338 563.701649275406 560.585195231758 553.73417884728 550.692712537668 552.272088971922 550.068535844532 543.896629848055 537.782425719664 531.130490017967 523.949164475124 510.393031835655 509.320306558979 516.245735551715 520.142477511071 525.442373879736 528.992497888833 532.888854219941 536.509570169858 540.374462619138 542.965597744083 544.404864879168 547.00183593142 549.27232301456 553.585469795075 554.897742384866 554.882050066397 550.90881540281 546.116775331723 539.191541890495 535.640684541475 530.826284153494 525.004613370918 518.467340260091 509.190599791864 499.280932588779 492.21941371381 484.295800224275 480.199691650311 480.698585291863
-9999 -9999 -9999 -9999 -9999 -9999 -9999 -9999 -9999 -9999 -9999 -9999 -9999 -9999 -9999 -9999 -9999 -9999 -9999 -9999 -9999 629.78976362339 627.171391652693 622.451244472806 621.527047280184 621.005424067326 620.970690213665 620.908272226225 618.367349980613 616.704770085724 617.962787219992 616.675746657444 613.589201020334 610.477756499079 606.574598065636 600.813661448212 598.664809004051 594.682332157977 590.793031890943 587.294414159902 583.7059828802 580.690454873242 577.564310080175 573.554985362435 567.89557943443 560.488996939359 552.680282296768 548.584606630562 543.814476671871 539.412204145319 531.055818060303 524.040136748479 517.062747886473 513.124600048145 509.128180411417 506.446293393888 501.339976636787 498.935261391239 497.460621541082 506.129843927749 520.072682792356 529.751182623794 533.310485389307 537.756550341913 549.601117426279 561.014921948744 561.218446768687 561.666477430002 563.292930767042 562.212090616421 566.077685935315 568.778704839722 569.169888318698 565.71816355348 564.972249585516 571.144552211309 571.183071403924 571.161015005943 569.150821270541 568.427042107783 564.897322702637 562.917272912793 561.341771653703 560.542861163938 561.274440167412 560.040097819866 554.887644973169 550.533751336791 548.117489616695 546.594970207189 544.997059999075 543.007879897453 541.425141853567 540.618647989177 540.218751342873 541.385618110807 539.03853359349 539.023231976474 539.013318407145 539.003307516201 539.00000162623 539.000001996011 539.000108201075 539.006417977994 539.035720375019 541.399637845132 542.996598940679 544.193814024532 543.789485505326 542.180421516174 538.987616883944 535.372822201925 530.543281564139 522.679470831548 516.708009330182 511.562058486111 509.487287694738 505.072919802483 501.142907407653 494.793361297044 488.891030626254 487.594870783664 484.798869009227 482.114257946189 481.240659827639 477.222010383708 469.635583776067 461.000213186481 454.577054920485 449.007886309287 446.143382974289 441.847697578765 439.490421957616 437.302506229599 437.528016182475 440.627054599747 446.545077836835 450.170765896593 453.434152073451 456.610535142172 460.579170025426 465.718882120602 471.295096100271 478.209734357256 488.30370230918 498.285481264855 502.775692607839 506.316586323129 510.75307050255 517.101622255882 525.772068848872 532.574420765386 538.537633422828 541.790254559307 543.381181329108 543.010149284917 544.210003190091 546.970719841137 548.492983526353 548.929178359536 551.690766022995 554.082200183323 555.795197814672 557.987418271958 -9999 -9999 -9999 -9999 -9999 -9999 -9999 -9999 -9999 -9999 -9999 -9999 -9999 -9999 -9999 -9999 -9999 -9999 -9999 -9999 -9999 -9999 -9999 -9999 579.008726477864 579.473195948823 576.379725098848 572.019502608618 569.404800140064 566.297599008102 562.813813227919 560.929472821574 558.72549563174 558.332199009919 556.681802232254 553.085232406619 547.855052893993 539.478406252579 530.743219580991 519.265500470074 509.828273020569 514.078902711464 520.163580728988 524.182850842609 528.122650121414 533.364851449158 536.885320049028 541.2473500079 543.487070580387 545.71842329479 547.98533021567 551.018191733106 557.003577388935 559.626045078941 560.160063365559 559.271596499248 553.612528864288 547.922688043049 543.48816281021 538.660890122938 531.208393240792 524.188481529122 517.912365149225 510.807247722477 500.911751076472 489.320978819546 486.862539668541 481.165367991216 481.886275519932
-9999 -9999 -9999 -9999 -9999 -9999 -9999 -9999 -9999 -9999 -9999 -9999 -9999 -9999 -9999 -9999 -9999 -9999 -9999 -9999 -9999 632.480309397066 628.892595299728 625.875526028519 624.105340648699 622.796133222464 621.013655497548 620.98947077997 620.972587826635 620.972880085033 620.968331892225 617.987783152294 613.98915828811 610.094479141824 606.566910602426 600.035922852333 597.302831925636 594.298183274674 590.798709150327 587.693641997593 585.073272136838 581.500235258073 578.462856085859 572.326790735033 567.897276250519 561.339741694212 556.461961786783 551.660547840768 547.155967393148 541.449220386708 529.721332886478 520.18688065006 515.709540144741 511.340791165995 509.550471899333 506.029887363989 501.691594956316 497.799343577662 493.756400377343 510.270838527245 520.46725144669 530.894732629669 530.916344639405 533.020543088839 539.099647922761 545.620714239796 555.699887346343 560.499389583059 562.913499105718 565.219181616583 566.882857064985 568.082798254949 567.659742247378 561.784894000303 562.967639924479 569.562362694134 569.191375857857 567.681404701007 564.510990350944 561.357586272189 558.993727300545 558.946688637608 560.066077879179 559.659660930221 559.23914245712 556.466905997807 551.335243159157 548.907018339969 546.998095856189 545.39962272779 543.807462152723 542.21177266974 541.013414431149 540.220283664868 541.386786863462 541.392217595606 541.386780001871 541.380071029432 541.373458337796 539.009905389023 538.99971525061 538.999901316646 539.007011181747 539.03300649032 541.37150092978 541.411976050235 543.784476764979 544.582729760724 543.389516216217 541.393317168506 538.975898624011 534.186440136481 529.737600090115 519.944535521278 515.9200522745 512.724017332308 511.020867421189 506.248108972142 499.191982582327 494.028240118723 491.14128712521 486.819823802349 485.195918168317 483.292869353425 482.015187619511 475.656856655802 466.910750503486 458.247876841138 451.836423767605 447.032750675521 443.821601025713 442.137401852022 437.399129695939 433.109288363692 436.021691046267 440.624200218634 445.010934763724 449.825080276811 453.390437447723 456.976462890372 461.035813928039 466.131337187747 473.377938503346 480.123369204961 488.835418941335 499.140372921183 503.642718211322 509.499047127671 513.893368099394 519.536893034788 527.380569425699 534.940639807173 540.575989058638 543.788127429091 544.990547304084 545.392156352073 545.410850202189 547.683213380017 549.298655160255 551.272214005268 551.303436860317 552.898369860962 555.289954762925 558.377608444377 -9999 -9999 -9999 -9999 -9999 -9999 -9999 -9999 -9999 -9999 -9999 -9999 -9999 -9999 -9999 -9999 -9999 -9999 -9999 -9999 -9999 -9999 -9999 -9999 579.000746051766 577.669722073493 572.93557061104 569.847410427725 569.375896792779 565.892228137855 561.568416729337 561.007772936844 560.973654122321 560.982072525944 559.279168819072 555.268370135568 549.538795575162 539.040477401906 528.041543061253 514.18747006635 515.816248308159 520.99610834376 524.200873446675 527.72280813185 531.272867381078 537.264461535335 540.78454268661 543.514553182052 545.750832152195 548.884736246067 554.016588712908 560.807371030936 561.834108907301 562.783723898221 564.555528238479 563.18929279511 558.76284712812 552.661454084679 546.967552939228 540.378602912128 531.599702245434 522.848935748959 516.359568877032 510.957849099185 500.928377553889 493.225765929617 490.860251473964 488.636681078339 489.039498697515
-9999 -9999 -9999 -9999 -9999 -9999 -9999 -9999 -9999 -9999 -9999 -9999 -9999 -9999 -9999 -9999 -9999 -9999 -9999 -9999 637.28719122988 632.913002490464 629.827021004474 628.494859769092 626.694728628718 622.844889806764 621.05629847929 621.019493839559 621.01408118526 621.008486209275 620.987950673531 618.765914463556 613.11360770723 609.597522284105 605.200938053145 600.422842755913 597.293128184242 593.799242248874 590.317909165796 587.708387818181 585.089759387101 581.984791374723 578.472255289856 573.58836341283 568.373434566194 563.539323129041 557.730094869642 551.915041388121 540.757211810405 534.559063968812 526.238710182263 518.859232043572 514.007938554586 510.060844035149 506.950538672383 503.951398069506 501.185173545655 496.611890614472 492.116205373805 506.806328447117 519.583992920367 522.229267819397 520.096283864877 527.573910667608 537.998869147591 550.024435657273 558.415327666296 561.28656181331 562.110865572376 564.090995074659 566.087870641475 566.880159266164 564.877205385765 560.194071827696 566.062129055173 568.758670519319 567.271931442618 564.099243838479 560.947133603817 558.961907502465 558.907302475666 558.472863773642 556.138908133565 556.083015031239 554.496667738101 552.490374781662 549.298656215322 546.985211159882 545.38912709365 544.189730316214 543.372370447682 541.799938381007 540.626537454292 541.385721990505 539.427362631356 541.384975665416 541.383269655752 539.027791579763 541.368446749991 539.001713207917 538.953912719795 539.003716720601 539.036299263878 541.365897860096 541.39836216946 542.58938516959 542.997257312136 543.783902707316 542.593615202664 541.380489479801 538.539929506549 533.340982104212 525.464912481001 517.575385104735 515.904327490591 515.017899815099 510.645133019366 503.608136049705 497.611982526782 493.164615722428 489.171315533155 485.223720099985 485.537796849268 483.275956325194 481.226371084564 474.434240820824 464.908107032248 457.405101727246 450.236021456427 445.065039282795 442.611912117495 439.849934585022 434.232507785677 431.732143881846 434.419682347025 440.923232772967 445.408392756303 449.742894888957 453.354536634793 457.410767445776 462.479238627492 467.420819137769 476.047717787991 484.737156877816 490.113390371466 501.14991890263 507.098748206289 511.488794719013 516.320591342726 522.679548582069 528.609552794513 538.141149882036 542.577252527033 545.386424954097 546.584432692969 546.197525647516 546.209439517896 548.090255593149 549.298024432345 551.28253134714 550.516440619022 551.31550764037 553.599718660115 557.079839276371 559.279101505324 559.300839904146 560.988588518998 -9999 -9999 -9999 -9999 -9999 -9999 -9999 -9999 -9999 -9999 -9999 -9999 -9999 -9999 -9999 -9999 -9999 -9999 -9999 -9999 582.105009812709 579.900899364246 576.799016963302 572.534143959942 569.839912296338 568.883924349278 565.911064722488 562.473902767042 561.055596008936 561.018409629545 562.769187572393 559.676677417775 556.625981696914 547.790820067843 534.23634332352 519.786644384248 519.731851279255 520.206168053022 524.612610277429 528.618520961148 532.12913556107 536.893721060499 541.317829952275 544.449587065518 547.447592769151 550.956583043875 556.23726794691 561.866228062814 564.06011506676 564.98775185621 565.886772704697 568.867963197719 567.545822724382 561.466658732163 555.291278526905 549.201656726232 541.68145676982 532.505902337255 524.259956635108 519.712261586764 511.090931559078 502.573123029349 501.76161260982 497.467582534953 495.309857922232 495.367102046414
-9999 -9999 -9999 -9999 -9999 -9999 -9999 -9999 -9999 -9999 -9999 -9999 -9999 -9999 -9999 -9999 -9999 -9999 -9999 640.786227781297 638.187465725344 635.087576273176 632.528483270271 632.866874434398 628.870511412602 625.895915151341 623.250002409874 622.827564028402 623.207307406712 622.798920675784 620.99568694322 617.996470103629 613.128773008461 609.611201129144 605.702652438774 600.829006984197 597.329416440046 593.823282681581 590.333169971642 588.578383474577 585.096141962219 581.960690868785 577.586883247636 574.065789864945 568.763185855309 562.116206636879 550.941192074437 544.263353345033 536.368166330728 530.248549967446 523.659741343484 517.550823203846 513.12705202732 510.852476907193 506.899105027705 503.906027282833 501.159924672429 495.459409801817 489.912102430464 507.193392760277 510.861957806253 509.373355460554 520.089037195978 531.633885319401 546.029505360717 556.716468323406 561.224946588927 561.289368052944 561.327829606224 563.288203593062 564.497053449797 565.669689475531 562.112033405767 560.160932617071 566.054935984222 566.07140829634 563.305943743593 560.944462666972 561.299312449873 561.281883404001 559.694451129393 557.689245731524 554.54245515945 551.788515860507 550.5552546659 548.937833140169 546.614771410763 543.069435956619 543.376293829591 542.206250451775 541.407800135748 541.000473963996 541.390329899217 541.388380713359 539.416584439617 539.800294230286 539.791355229546 538.992870739924 538.982827469255 537.800777649204 537.073820696257 539.024885519528 541.362690473188 541.391984356746 541.405025811842 542.193220602681 542.587911994819 541.793626527998 541.387539337968 541.340712661609 535.749451818732 529.745314146181 519.992830006868 515.95362502283 515.854392465669 513.810601659235 509.390741026347 503.452649977853 493.93578951759 489.909653499726 485.540115068554 482.431880456238 480.011319237043 481.148951832523 481.105470034694 471.898850100433 462.450918030225 455.366742860572 450.165999616912 444.9900612881 441.771140544648 438.606181737299 431.104413145379 431.086553909869 433.985185026946 439.504190594718 443.438437844348 448.579455312847 452.630022359313 456.646866588499 462.586474598872 470.086629613625 478.884306949798 486.447384924527 495.991526186115 504.013583859369 509.862988493536 513.894531699229 517.930029461637 525.435087115829 531.407508671257 539.741189140724 544.159642928889 546.175556328561 546.589972750769 546.199366173032 546.601640251514 547.692714501639 548.893596288313 550.075896310004 551.276363831947 550.111532678597 551.804699297141 554.49382920784 557.079689055972 558.779949332417 559.6872649841 -9999 -9999 -9999 -9999 -9999 -9999 -9999 -9999 -9999 -9999 -9999 -9999 -9999 -9999 -9999 -9999 -9999 -9999 -9999 588.288693923866 585.194838519607 580.818043766896 578.59336670351 575.084744356744 571.591684553489 568.914902724066 568.023279924803 565.872906103722 563.235503728061 563.691575889016 562.77600676163 558.379560880399 553.514347673335 541.62181403645 522.721433761595 522.268823847998 523.705935418808 525.555438832814 529.879564500504 533.806639382859 537.843578164754 541.425035219269 547.850285391099 550.911419426018 554.047522410277 559.712692174483 568.398690157373 569.738446223598 568.468040508479 567.591277376098 568.493585919409 570.677789470068 568.885030204968 563.237407265403 559.260170668224 551.398139510037 543.492384537155 535.107183275119 527.2862913854 521.255961639548 517.586029001157 512.806134874691 509.172378051203 505.036071085696 505.303108138329 504.919450162009
