ncols         233
nrows         27
xllcorner     387445.000003
yllcorner     505845.000025
cellsize      50
NODATA_value  -9999
-9999 -9999 -9999 -9999 -9999 -9999 -9999 -9999 -9999 -9999 -9999 -9999 -9999 -9999 -9999 -9999 -9999 -9999 -9999 -9999 -9999 489.598487995601 489.982482623132 488.822188845145 488.840698043565 491.197317909025 492.420593904294 495.988761920982 499.174493753895 -9999 -9999 -9999 -9999 -9999 -9999 -9999 -9999 -9999 -9999 -9999 -9999 -9999 -9999 -9999 -9999 -9999 -9999 -9999 -9999 -9999 -9999 -9999 -9999 -9999 -9999 -9999 -9999 -9999 -9999 -9999 -9999 -9999 -9999 -9999 -9999 -9999 -9999 -9999 -9999 -9999 -9999 -9999 -9999 -9999 -9999 -9999 -9999 -9999 -9999 -9999 -9999 -9999 -9999 -9999 -9999 -9999 -9999 -9999 -9999 -9999 -9999 -9999 -9999 -9999 -9999 502.712946674334 500.898413754484 497.816938638223 496.096464751526 493.030883532315 490.820325975477 488.215860903883 486.376458988628 482.891998673346 479.391072589706 475.002636803327 471.02952834872 469.667285171222 466.702518585156 463.58967187822 460.549945144782 459.147649551738 455.194810212211 450.948068362088 449.035488803538 444.685915767347 440.787915922064 438.430431776272 430.745659368257 429.022805063278 422.240440954321 419.89636389778 419.13374516405 419.011060816555 420.489398383444 417.446783103571 411.363319269408 409.702744169493 409.20580330379 408.620424789015 406.317615879679 403.548463711548 400.971756791585 400.172840920667 399.778197408631 399.400742129956 399.003822315621 398.638430593844 399.147846433664 394.045028759266 391.23313758109 388.942259927042 387.533401764444 386.729037193769 385.797586891105 384.126731587065 382.104877180495 380.744604912971 379.81633351696 379.299514434834 378.927763920974 378.59360887666 378.37590156974 378.391431395187 380.456501319231 379.641279274535 379.716010307875 380.494763811366 380.509262149986 380.898165185638 380.90934144544 381.693503913498 381.692959413992 380.906077104859 380.002767208542 380.864627243684 378.771303186871 374.39674339093 369.937303131494 369.107677308327 368.788106294037 364.541986434906 367.721194879648 369.129997820852 371.517052983194 374.78366095448 376.371521995288 376.374977331842 375.612652906931 376.02244642822 378.414556645628 381.240606629283 380.266827601987 387.771415202716 392.638827104642 393.883975403152 395.50518126697 398.02043592502 401.981822089751 404.919881217259 408.530224918164 413.451813970553 419.614333415015 430.890171950385 441.413309757352 451.830892881928 456.445277377429 459.395746906017 463.35391568815 465.102260193348 467.513461691727 470.303502435903 472.780144370199 472.806149680956 472.775903150058 469.913579760937 468.315200557885 468.241063932229 464.588037855692 461.071552642137 460.18997317235 457.705328621681 456.804985042993 454.060234846489 451.942072101905 447.286275713185 445.18062355484 444.685694277001 440.791546756738 438.659045091171 436.620886362574 433.756604217619 433.689002777319 432.893062118721 432.103107238876 432.856387974215 430.892096496499 430.867805511845 430.832102708512 420.081332584623 418.910870163952 419.477948192405 431.008222762384
-9999 -9999 -9999 -9999 -9999 -9999 -9999 -9999 -9999 -9999 -9999 -9999 -9999 -9999 -9999 -9999 -9999 -9999 -9999 -9999 -9999 487.586064522082 487.977389838871 487.984875286759 489.191075826292 491.170082741154 492.407475429966 495.98112774562 499.178241223182 499.19878403511 499.19823778478 499.186214740441 497.973761001133 494.40229325166 -9999 -9999 -9999 -9999 -9999 -9999 -9999 -9999 -9999 -9999 -9999 -9999 -9999 -9999 -9999 -9999 -9999 -9999 -9999 -9999 -9999 -9999 -9999 -9999 -9999 -9999 -9999 -9999 -9999 -9999 -9999 -9999 -9999 -9999 -9999 -9999 -9999 -9999 -9999 -9999 -9999 -9999 -9999 -9999 -9999 -9999 -9999 -9999 -9999 -9999 -9999 -9999 -9999 -9999 -9999 -9999 -9999 -9999 -9999 511.004688472686 508.403315656411 504.914003461819 501.829552268402 499.132006033843 497.803132707649 496.114828687273 496.456177574286 490.800658627547 488.58822840806 483.774069181693 479.388345483844 474.614607496391 470.270742975098 469.686050990944 467.054058103936 464.410146006372 461.728404376172 458.340224288242 454.397205587903 450.860056229304 446.840784736759 442.945924501841 439.474704165476 430.7789675719 427.709451866657 424.607561773092 422.46308874143 421.480759040204 423.058673973478 426.975380343433 421.915527737438 419.192869129478 416.53784204733 411.876284432978 409.267037486172 408.910290613449 410.232685104371 410.197680687354 410.765461323036 411.221621221608 407.713895259662 402.055961074178 404.744780307525 403.359337929788 400.218262936344 393.905875738125 391.059087026957 388.549600473708 387.084562696266 386.432607371611 385.65370077995 383.756707604485 382.157546547542 380.968360331062 380.483134316185 380.248781222558 380.504907834365 379.980624639643 380.871673836025 379.213964616633 380.00923085698 380.8989201018 380.910045326941 381.306810892854 381.701402020806 381.711174102486 382.493465177279 382.891415262963 382.888322798528 382.075476971207 381.30440555953 380.503365495162 378.795091936516 375.203531336891 371.124656442704 369.132656731738 368.817650586128 364.104354811389 363.655039890048 367.927027479918 370.302851717479 372.301246505523 373.977601667613 373.988824515069 373.494332369215 372.731694882899 373.510055793941 374.426791891857 379.128797148535 385.22220289682 389.696730445165 391.837534934595 393.86952542277 396.702467952228 401.548087587665 403.98732606886 404.992038667973 409.714644199067 414.662767629661 421.58423116291 430.155821365714 438.637140254196 451.396767007459 455.618672948914 458.099742752444 461.761926696412 463.779375059225 465.883903338422 466.711938375017 467.115191879202 467.476335801321 465.890407155405 464.604802106059 463.781257348865 460.635875446044 458.528235389645 457.267110793507 454.103631943097 450.023048596962 444.452576754293 441.965999147393 439.088237685705 438.221556200301 437.400302927743 436.576225570973 434.603235198701 432.882263743186 429.388344739079 430.095075353733 430.088767294447 429.312748633522 429.659943306174 429.214946039394 429.144655800642 430.769934877123 419.873359066035 418.865768743873 430.457602417111 432.924920382464
-9999 -9999 -9999 -9999 -9999 -9999 -9999 -9999 -9999 -9999 -9999 -9999 -9999 -9999 -9999 -9999 -9999 -9999 -9999 -9999 484.385826671813 484.789219604112 484.811453574643 486.003840141272 487.994850131775 488.835248307956 491.610215728115 495.192545427098 498.370148004772 499.182623561842 499.175199510175 497.955798435785 494.395551378975 491.621450507388 -9999 -9999 -9999 -9999 -9999 -9999 -9999 -9999 -9999 -9999 -9999 -9999 -9999 -9999 -9999 -9999 -9999 -9999 -9999 -9999 -9999 -9999 -9999 -9999 -9999 -9999 -9999 -9999 -9999 -9999 -9999 -9999 -9999 -9999 -9999 -9999 -9999 -9999 -9999 -9999 -9999 -9999 -9999 -9999 -9999 -9999 -9999 -9999 -9999 -9999 -9999 -9999 -9999 -9999 -9999 -9999 -9999 -9999 516.686527599119 511.938576324619 511.012026142885 509.693296252748 507.487441195349 504.404769801618 501.812670960954 500.491799086581 498.277509855464 493.38826798314 489.454188647884 483.319621687554 478.993204479687 475.012988210018 472.378898697809 469.678655940188 466.680707929581 463.967406113168 460.166451911947 457.36080600576 452.579448299297 448.142081543348 440.942649986774 436.141080253053 429.991678424953 429.365007433449 428.845920971632 430.292954764412 430.932583592368 435.707785440037 429.230294680617 429.760953074327 425.79071032902 422.294508317774 420.047908017781 417.058244133762 414.889260726435 413.142242153071 413.483201755776 411.808265402019 410.537917095665 410.88489298555 409.511708424746 404.296719791469 402.688128500375 401.302413996976 400.429840326903 398.989663952685 398.514188634631 391.570668205205 387.863009639664 386.469212354002 385.659484556578 384.063732184066 382.764657100572 382.524332824554 383.277019702404 383.653985254481 382.398732379093 380.533871207765 380.036803217439 379.987282765496 381.295083267696 382.098892929434 382.500947506353 382.900502054134 383.29745903317 383.306181705639 383.696855165014 383.693569080079 382.909970061797 382.895153575297 382.494908538032 381.69193333063 379.987437781914 377.956323289517 372.714091953624 369.929020435667 369.112225116303 368.496797831979 363.184476186725 362.71007220477 368.803282844375 370.282566854721 371.481447093294 371.497515175664 371.464661451189 369.890717267601 368.744788409326 369.234559345729 372.441468512722 379.239350228489 384.491206680203 387.777454460922 389.465207376923 395.051948810584 400.306684512684 403.118672095314 404.009668479627 405.798632292239 411.056107912168 417.098311162048 421.937692952596 428.930074246634 436.647571239036 447.869813302935 454.411648573248 456.503646911529 458.519782224857 460.994099906325 463.354946417561 463.368813861655 462.192869407939 460.639498329555 461.37752552711 460.194892102791 458.505063207919 456.893184134212 454.128039543211 451.209243766982 446.785746007085 439.92366651418 435.907554190656 433.392611286246 432.532913943235 430.244428500407 431.686691063372 430.872177865152 429.261877664777 427.185824986015 426.794115846991 427.187013380239 426.792894109701 425.993812582004 424.393443464364 420.018622084559 417.812879299464 417.560713243481 419.251676503358 430.424307648111 434.550768573583
-9999 -9999 -9999 -9999 -9999 -9999 -9999 -9999 -9999 -9999 -9999 -9999 -9999 -9999 -9999 -9999 -9999 -9999 -9999 480.514649600979 481.693185206537 481.70355414214 482.122885963576 484.000471474328 486.756768662632 489.173012252717 491.196436692203 494.380025028804 496.767559648497 496.775487547218 495.973107033104 493.205228858426 490.833470851393 490.416627174231 -9999 -9999 -9999 -9999 -9999 -9999 -9999 -9999 -9999 -9999 -9999 -9999 -9999 -9999 -9999 -9999 -9999 -9999 -9999 -9999 -9999 -9999 -9999 -9999 -9999 -9999 -9999 -9999 -9999 -9999 -9999 -9999 -9999 -9999 -9999 -9999 -9999 -9999 -9999 -9999 -9999 -9999 -9999 -9999 -9999 -9999 -9999 -9999 -9999 -9999 -9999 -9999 -9999 -9999 -9999 -9999 -9999 -9999 519.289691012069 517.10701720977 517.072939665318 514.893991887335 513.184842573907 510.578573889911 507.4757860455 503.484082611235 499.073997711215 493.89220715491 488.980426895767 483.30257627873 478.521819291864 475.410021960929 473.161044775026 470.137455753614 466.718122767844 462.790565605633 459.173048836271 452.287219670635 450.462178013181 440.291210082615 434.509953723166 432.26929521586 431.444020865766 434.582084017446 437.731608896503 438.541810975039 438.064106925204 435.881575244544 429.385736352823 431.069975531782 428.478088939915 424.978175661897 422.278980806815 420.103195261392 419.656398234533 418.374476137258 416.174729579389 413.497940477388 410.965884461336 410.873943999998 408.644938058073 405.00264588967 405.583538078763 404.310878747417 402.676316738883 406.044863356445 404.207387077828 398.728032548918 390.084677643461 388.127297770782 387.412876634746 386.974907018905 386.575902622223 387.02778772105 387.550364196054 386.789758880288 384.587413147847 382.491500979941 380.920684645111 380.521514055452 381.321039515833 383.687698469471 384.493599398206 384.513557792757 385.296004396359 385.297348335467 385.286830324636 383.721717708842 383.703901631175 383.697205912014 383.296656532079 382.096293046757 380.496226469086 378.768897253863 374.795341866259 370.750104803244 369.139715520813 369.09479311045 367.476245332388 362.29175035666 362.103389011168 367.581202044196 368.986775532497 368.987116958167 368.967687985989 366.516832039631 363.940812776132 366.982662042306 370.714952241523 376.731128654409 380.483083317404 383.315743203026 386.61626603897 390.633055054002 396.625320179888 399.171372833474 401.970392489715 405.673043742011 410.941257173294 412.615833248697 414.316524221406 419.955765419423 425.69453555492 434.645336781679 448.190348007714 452.272311722162 455.226635600757 456.492177348231 457.705903481257 458.107043889824 457.328980748113 457.327052863594 457.708791983268 456.929278898425 456.510193592561 455.684665465655 453.670426151079 449.977670496863 444.732065396235 439.057276215612 434.131326627632 429.469097304342 429.673675773592 428.01064620609 427.944045260185 425.622580793339 424.016000405318 422.475181705875 423.604790741867 424.376976101513 423.97542449337 422.77166282643 420.65629007455 417.148230328844 411.752932506008 414.434597103357 420.823429611295 431.12634245075 434.992310485955
-9999 -9999 -9999 -9999 -9999 -9999 -9999 -9999 -9999 -9999 -9999 -9999 -9999 -9999 -9999 -9999 -9999 478.906880138045 481.277807231429 481.274024762318 478.924434297753 478.941415860685 480.114614919233 481.699469224957 483.316957540638 487.171181082573 490.37393444421 492.380027395186 493.185967142847 492.405723591178 491.219354542732 490.033426129012 490.018968939571 491.190938764782 -9999 -9999 -9999 -9999 -9999 -9999 -9999 -9999 -9999 -9999 -9999 -9999 -9999 -9999 -9999 -9999 -9999 -9999 -9999 -9999 -9999 -9999 -9999 -9999 -9999 -9999 -9999 -9999 -9999 -9999 -9999 -9999 -9999 -9999 -9999 -9999 -9999 -9999 -9999 -9999 -9999 -9999 -9999 -9999 -9999 -9999 -9999 -9999 -9999 -9999 -9999 -9999 -9999 -9999 -9999 -9999 -9999 -9999 523.308953102185 522.398894351502 521.977477303171 519.78305150913 517.081996257156 513.190379916634 509.168210384275 503.495514088405 498.295223570377 493.001305627781 488.587454907682 482.913283702858 479.006993722067 475.896453640128 473.609695369116 470.563429819557 466.7462162166 463.881107218057 457.576019850273 441.846941944063 439.516906802821 438.659101806342 437.579375479578 439.523701967275 441.274578386947 441.561048662657 442.485814042462 443.372215747889 441.197692894599 438.565963522608 432.446901956002 431.517241375227 429.7842688807 426.677703691509 423.642626784711 422.803034323466 422.283035810766 420.966781164822 418.355445524729 415.293117645757 412.260429354169 410.543446973824 409.146204465314 409.895333705073 408.642888625282 407.411502849022 409.926783164221 410.834352470475 406.331863058039 400.379966660615 393.260274396788 389.96813009981 389.729057214904 389.565342851202 389.02456928985 388.988299019055 390.683255479546 388.501014320047 386.278987076538 384.0829606787 381.758374034371 381.340785710366 382.511298446641 384.499163399951 386.590548249992 387.389567435585 387.786076689688 387.387879655344 385.811850635257 384.91575190494 384.518113832998 384.89285797945 384.099612491647 382.504633989148 380.907554813491 379.679302059513 376.777633686771 373.114207320552 370.331764244762 369.106729445303 366.933782106338 361.979902332498 360.436838678616 360.278052725941 360.493292364166 360.632794913011 360.629018811619 360.973236681622 360.307402542805 364.190235551661 368.280694840628 371.545813542626 376.352432079888 380.427462398636 383.295315988783 388.146795685755 390.239275726276 393.910770288796 399.136706542175 403.957885897797 407.263249792589 408.881567480332 411.373273173127 413.83552127679 418.349834155149 424.867742449848 432.935920167556 439.804272707663 448.634702538763 451.864339716139 453.988592524481 454.820083185278 454.096496672333 455.29106716503 456.085416319663 455.321543304974 455.68692812032 454.49261570156 452.408375627555 450.748401583316 445.448087663952 439.417081277134 433.725847418521 428.965673178057 426.819529676234 424.865605316205 423.272347663952 421.945180112112 419.242144145437 419.934159125335 421.067987558368 421.076106323934 420.28266778592 418.679120242151 416.08788550441 411.049966543771 411.119407047228 420.215744222992 425.547678682122 431.638860079143 435.828148356218
-9999 -9999 -9999 -9999 -9999 -9999 -9999 -9999 -9999 -9999 -9999 -9999 -9999 -9999 -9999 -9999 -9999 478.902337403705 478.900481415565 478.498482456387 478.084325750436 478.073760619888 478.48478396764 479.297014102022 480.137230686698 483.603601393725 488.356055657636 488.80913561812 490.00021978174 490.001485145664 488.842045751106 491.177944530363 490.017951256595 490.803242618608 -9999 -9999 -9999 -9999 -9999 -9999 -9999 -9999 -9999 -9999 -9999 -9999 -9999 -9999 -9999 -9999 -9999 -9999 -9999 -9999 -9999 -9999 -9999 -9999 -9999 -9999 -9999 -9999 -9999 -9999 -9999 -9999 -9999 -9999 -9999 -9999 -9999 -9999 -9999 -9999 -9999 -9999 -9999 -9999 -9999 -9999 -9999 -9999 -9999 -9999 -9999 -9999 -9999 -9999 -9999 -9999 530.817423957377 529.420476833537 528.587021567448 526.39302566781 524.58580642365 521.987030589648 518.864396282253 513.592404068821 508.784036625257 502.702246920978 497.793189172709 492.111811170672 487.697585793016 483.304062760855 479.37125799667 475.871844691652 473.972601730596 470.59596555059 465.266218696803 460.40148016191 448.822069318853 444.42300833869 449.609444382394 451.036980429271 449.754727260452 449.410405104108 446.457517161615 445.611202639841 448.15352744957 448.15856575734 444.305247306794 439.037289991191 438.952678004752 435.056731679613 430.71414499194 428.01934309647 425.844586537807 425.397604992196 424.098252988105 421.429531382782 419.226283495556 417.494280177012 414.894138911158 411.883107966929 410.617506149837 410.92692369556 410.520888922391 410.856945200576 410.848114161001 408.972311106134 403.71176076389 400.812435918424 394.05971018578 391.772327125213 394.322744008089 395.054300410329 389.844502209853 389.844495307547 396.810479575451 389.041976981221 387.588289178978 385.771603722878 382.979642257198 382.561580095619 384.110421105324 385.809206045231 388.198645783962 389.789703184673 389.801783553663 389.003582432307 387.41921519804 387.001274335203 386.60104901263 386.20081995108 385.295321984067 383.693621948638 382.093354717683 380.488168972222 378.380333618196 375.586512793866 372.297793945002 369.904015669056 367.854089175968 362.325509400458 360.10609780575 358.296370634967 357.821848304092 358.458283697178 359.038216242385 359.329899652857 359.381118251685 360.97481164361 364.265780358739 368.319744667813 371.15810452955 375.192356575134 379.664815356738 383.263095505246 385.295510872939 388.977285174252 394.261660973418 400.336167920729 403.161704691965 403.643911066509 406.47174892667 408.153248201056 413.021491904381 417.557752760846 423.616748933896 428.549057512289 433.746755642302 438.601287964553 442.286294333951 447.840374676875 449.500675046256 453.59695883686 454.841328571708 454.089118265878 455.269794536574 453.692255386596 452.013391645971 450.752943171689 446.738885870728 440.583331579998 433.694118924429 428.52589905615 425.261408148021 423.633409995224 422.383552819713 421.068578826131 419.14687621501 418.910884173641 416.345071001703 417.805970016944 416.264237780019 414.062986930071 410.790489470216 407.862256540847 420.138596945658 423.550056136744 428.43747227175 433.269460320282 437.796351666395
-9999 -9999 -9999 -9999 -9999 -9999 -9999 -9999 -9999 -9999 -9999 -9999 -9999 -9999 478.900002041009 478.901097785096 478.901638367248 479.284041536201 477.691655851449 476.889714089534 476.089119230806 475.31646571993 475.711628809306 476.892973827509 478.109573288963 480.514846961753 483.982249929319 486.754890926373 488.355220145788 488.730423363053 488.810400219978 489.997902194814 491.196858538166 492.792223019079 -9999 -9999 -9999 -9999 -9999 -9999 -9999 -9999 -9999 -9999 -9999 -9999 -9999 -9999 -9999 -9999 -9999 -9999 -9999 -9999 -9999 -9999 -9999 -9999 -9999 -9999 -9999 -9999 -9999 -9999 -9999 -9999 -9999 -9999 -9999 -9999 -9999 -9999 -9999 -9999 -9999 -9999 -9999 -9999 -9999 -9999 -9999 -9999 -9999 -9999 -9999 -9999 -9999 -9999 -9999 -9999 536.48830500703 534.689616832815 532.089724791762 528.603066335629 525.493948478179 521.999310399735 518.477833414441 512.793126930437 507.88500160282 502.197682218769 496.99027811554 492.093665524543 486.904751969399 483.246396441446 479.203568666144 475.282893537341 472.398570628414 467.94946390723 461.295696779834 449.854850581378 449.198179428847 453.716922003471 460.846023658902 458.753658542675 457.820798936558 452.643839177969 449.22402924153 449.180891591613 451.69707932435 452.567362587061 449.96253664062 440.014029389009 439.005604829331 436.743406628987 432.44213319902 430.725545953957 429.3118134982 428.483528052202 426.302255785349 424.087712304873 421.04140530444 420.922530288631 417.43964500746 414.949476012295 414.029878185861 413.977061738706 412.733379522767 411.813248468678 410.012865765531 406.024814172794 400.635517376737 398.839235445427 395.771362040281 395.552599425029 398.870659504987 396.326514952468 390.806972219155 396.846351474479 396.855715749787 392.467025041433 389.007386570335 388.167182658326 384.982397436824 384.571916206941 386.195609946179 388.178699307102 390.190629379483 392.29868139299 393.482865631393 391.914309579101 390.218343739588 389.015700852591 388.987538909609 388.187210834722 386.198163936982 384.494387632245 382.892055108319 381.295123065148 379.68592380901 376.782407083888 373.494720565249 370.7017443822 368.281159877867 365.756544451763 363.182519117779 359.703517368918 357.336907627033 356.853844851993 356.390306114167 358.775579544392 359.072676964336 359.406573742513 363.395438588857 366.166654570614 367.530965069332 369.964667011383 374.790211814036 377.962841912433 378.878426258375 382.528564942917 388.176193119262 393.095624379328 399.87085971699 399.217679442923 400.429805698158 403.227028006644 409.632874191074 413.397036132693 415.881013420888 419.966454108478 425.190071162253 426.488876975042 429.786498533442 433.776348124032 439.394876281461 446.202450863189 451.429809768365 451.548805124955 452.858752142483 452.880939660108 452.857023293657 451.429846846725 445.397720754269 439.304545515696 431.338266203152 427.636947531946 425.222483071364 423.585026649117 421.904348714461 420.312556137662 418.991295421244 416.157951458257 411.537906018044 409.533065431488 411.003413784358 410.853878573267 400.214186889187 415.631112422689 424.748251394565 426.342289370401 428.91907797531 433.691014491692 438.969125428188
-9999 -9999 -9999 -9999 -9999 -9999 -9999 -9999 -9999 -9999 -9999 -9999 -9999 -9999 478.903390186495 478.908410740371 479.682294026558 477.69419463378 476.094901131152 474.506073893673 473.697763755132 472.542882886301 473.305127555951 474.121467042868 476.098755520259 478.493100458188 480.108781747439 480.929164842814 482.889627570644 485.201396188984 491.15584342614 490.038307384147 491.603535345838 493.997899893642 495.997705190772 -9999 -9999 -9999 -9999 -9999 -9999 -9999 -9999 -9999 -9999 -9999 -9999 -9999 -9999 -9999 -9999 -9999 -9999 -9999 -9999 -9999 -9999 -9999 -9999 -9999 -9999 -9999 -9999 -9999 -9999 -9999 -9999 -9999 -9999 -9999 -9999 -9999 -9999 -9999 -9999 -9999 -9999 -9999 -9999 -9999 -9999 -9999 -9999 -9999 -9999 -9999 -9999 -9999 -9999 -9999 542.58185316775 538.20083963236 534.695100983009 530.780898892141 526.389720754734 522.372481595109 517.567375049005 511.011539418542 506.583538175143 500.90707260072 496.096616171016 490.807375111521 486.370598503497 482.312886831438 476.334035954468 469.639960364986 468.031773544116 461.395239496535 452.74174765277 450.3690766318 459.816905477047 462.228732415233 463.947927622143 463.949681391934 462.238576471763 458.762913386528 456.09701605174 456.082959568188 456.975558701818 456.58683981474 456.031234084425 449.049543825756 439.140212193596 436.900507718481 436.403178101582 435.09225738051 432.909424357779 431.491948715987 429.284890393545 426.666868925735 423.221265315039 420.179357835268 419.67496281601 418.388471485008 417.863451326875 417.05718155452 415.659277795228 413.922872356113 410.071092924343 408.540713014381 400.173118673026 399.158098655414 398.778441331558 399.357460112598 397.358704050273 395.171405085361 393.40534890123 397.271457539096 395.48814728171 392.050392770171 391.121816470451 390.574450668443 388.989986279825 388.548451370126 388.184600574004 389.047005819805 391.904354888824 395.091348740469 397.972476536426 397.950180129791 394.689649181742 391.905764766253 390.592308801702 389.378755094072 386.98159212919 384.891269115923 383.295799742548 382.09303210088 380.823671002729 377.172952865027 373.987579281548 371.084898957008 368.296534031839 365.795578600309 364.176356980424 362.944219682839 360.405466390836 357.892945255666 355.896249014747 355.415035662353 354.95250475078 359.875276698542 363.327047698905 363.010734327693 363.849584422478 366.992122264326 370.287346110482 372.297759488077 374.042919815591 377.221630711381 380.543362768717 386.593534958936 391.861194189226 395.400723638953 395.141345855821 398.040354492717 403.213249582007 409.627384227942 413.366356994901 415.436838046407 417.936714610617 419.933416723515 421.945638839596 424.872454380917 429.369031686003 433.425208304667 440.180618513581 445.767745722214 449.438910223232 450.669195959111 450.669004224782 445.805498129838 439.377484778786 433.721206182674 428.951854949562 426.811752968755 425.215327274352 423.616582281583 421.905862096646 419.984598352184 420.657193639688 414.154018754658 409.030998667856 409.254516246841 409.000658559604 399.138015214749 404.058796203633 418.211773712411 423.911259838776 426.024793117558 429.694195252197 432.561186563794 438.60027579723
-9999 -9999 -9999 -9999 -9999 -9999 -9999 -9999 -9999 495.592014627412 492.414457792938 -9999 -9999 -9999 478.907934896823 481.257378957875 478.488254002408 476.490064576952 474.09919491191 472.501797184415 471.68490905796 470.540591935265 470.947420798778 472.123108870023 474.099848379937 476.089503862574 477.662476031966 478.106915885213 478.990785187981 483.318771902272 491.143145624265 490.836195857436 492.768948959336 494.788960055378 497.200959054196 500.417232966707 505.119989900465 509.100547125129 -9999 -9999 -9999 -9999 -9999 -9999 -9999 -9999 -9999 -9999 -9999 -9999 -9999 -9999 -9999 -9999 -9999 -9999 -9999 -9999 -9999 -9999 -9999 -9999 -9999 -9999 -9999 -9999 -9999 -9999 -9999 -9999 -9999 -9999 -9999 -9999 -9999 -9999 -9999 -9999 -9999 -9999 -9999 -9999 -9999 -9999 -9999 -9999 -9999 -9999 555.295619725152 551.793199201385 546.984659397037 540.799837123457 536.003710167683 531.587134070464 525.890241825129 520.690582757994 515.385395437826 509.221634493997 504.894718993969 500.003241663717 495.201580564755 490.370328913861 485.414489766318 480.659702213842 473.942973179602 470.989531645265 465.08804836409 458.587025973743 453.008178436279 462.825083462822 465.750023724708 466.691014856 466.708541187074 466.207992234271 464.900231730009 462.71619753723 461.04197445912 461.79568197789 461.795107617076 460.985024289425 457.896542820862 452.991158597983 448.633249069079 442.550797155811 440.817942508684 439.39973568887 437.686119606819 435.039259265606 431.93453205548 428.492198976576 425.411256713719 422.347040590566 421.062556153484 420.996538504214 420.928508130269 419.159100860237 417.821371385565 414.82016651633 410.960075108862 409.706747038106 400.838202802965 400.737376517251 405.94314575402 404.316092192058 400.093954653164 399.11309287341 397.813486222972 396.997006218179 395.601386157285 394.743138050051 393.364173740056 393.117683882968 391.459798325085 389.156525736955 388.790989048443 391.972725289139 394.36430818533 397.540969510406 401.579138381164 400.407577846046 397.995555475784 394.311277892499 391.422476776847 389.017980485605 386.237536377404 384.531463941549 383.695729745449 382.081352980335 379.221759072636 376.0334943803 372.330510456589 370.295921474985 368.266157511008 365.407903445707 363.101853536325 361.783813867565 359.364801192535 359.248440908446 357.601456901554 358.179300996666 354.313809107531 359.602065225364 359.086754864974 360.132833069927 360.960302053688 363.408461997812 365.788337132824 367.048988371556 369.918049340039 373.46857568167 374.477895151744 378.852363345641 385.733705840289 387.768908233927 389.806623395155 394.277767509731 397.562983880811 403.221867160969 409.634624309117 413.340454353828 414.587092957683 415.047872069861 415.905481470676 418.773248755958 423.215753464906 429.232019590849 430.55582950966 432.972111015488 434.684659906085 436.661356086254 438.594665276748 435.832357120919 432.919062003369 429.330909879183 426.822358718927 425.617735212656 425.578624337566 425.134829930579 423.150442109871 420.36014628242 420.65510863474 413.814187976004 406.543739738403 406.383215239629 407.808579474338 398.747850888916 404.676069417164 418.510457732828 423.911330001719 426.39964164857 429.292222548643 432.194638077406 439.747509776362
-9999 -9999 -9999 -9999 -9999 -9999 -9999 -9999 -9999 497.177141460637 493.19054262001 489.177045263155 482.520694249691 478.978567464783 478.926039634834 479.287674044565 476.895093839227 474.494904924043 472.107876224542 470.509181259872 468.945151979025 468.924489338056 471.237255502429 470.499538959577 472.089973468094 473.676185317791 474.499840848052 475.345376746129 477.322496153621 480.946437831328 489.51274940365 491.596376362298 493.958484216193 494.805275711011 497.222147520741 502.409676709386 508.677540914411 513.484475405582 -9999 -9999 -9999 -9999 -9999 -9999 -9999 -9999 -9999 -9999 -9999 -9999 -9999 -9999 -9999 -9999 -9999 -9999 -9999 -9999 -9999 -9999 -9999 -9999 -9999 -9999 -9999 -9999 -9999 -9999 -9999 -9999 -9999 -9999 -9999 -9999 -9999 -9999 -9999 -9999 -9999 -9999 -9999 -9999 -9999 -9999 -9999 -9999 -9999 -9999 558.3554958304 553.076643291612 548.77116028315 543.476882093048 537.772886871349 531.584094897 524.613845127963 518.907168737136 512.835126170975 508.410066012406 503.512720057053 499.108143401436 494.77780363902 490.571253802562 484.259464053302 479.507657162664 475.357938317394 470.947606626957 464.756539765318 458.954541842208 460.493224848001 469.198231349178 471.827202736568 470.979716247866 470.958864073027 469.692215508534 468.411317010551 467.506736048134 467.10731631822 468.359830996534 467.475829692501 465.291246213202 462.689095524143 458.778522211252 453.862927316573 449.968891615833 447.279588506388 444.266677778116 440.766222728937 436.348952905033 432.478420777707 430.232140682011 427.609611288816 425.796466464835 424.498407998208 423.587220051229 421.486790652602 420.943660176516 418.955719973975 414.724348895439 410.35338326586 409.07161354459 405.225823125883 409.443556649868 412.592940193934 411.750094299281 409.986359480016 408.696278548138 407.005212903657 403.103242101457 400.911230434178 399.588247821646 397.471019351709 398.079003362648 396.825140230862 397.166266646038 397.566693622698 399.250190844499 401.252758373037 403.269100124573 408.430223015481 405.285022864126 400.434845806823 397.498196033952 393.897720551973 390.606068131175 387.813842991305 385.80144667767 383.702454737709 381.325471871929 380.8392396377 377.506108287838 370.756496814243 369.101157026984 367.491396609752 364.994185508329 362.271566539347 360.71635883458 359.374285631303 359.324629821995 359.316710419675 358.744060031221 353.731733016127 353.238642033426 352.756287687128 358.740480905285 359.026395681109 360.058704290028 361.330289778911 363.00422101791 366.591523547689 369.480092316657 370.725114527085 372.776415734688 379.116193041331 379.332586435969 383.368266331513 390.503015229254 394.26479628848 398.78942658431 404.464425382629 407.691749430801 411.320944602875 412.55953563143 414.57977657385 415.472073997147 417.967294643864 421.911168936702 424.041128508169 426.804698626796 427.648653572038 429.343657391251 431.299225000486 429.735249326279 428.028908409852 426.023584202722 424.056972784877 424.767680156763 424.77391742025 424.75762350956 423.537692119346 421.409026169444 418.794863381045 411.13267156777 404.798474614179 400.992650059902 400.023462855368 398.395892136384 408.450018582704 418.950283231902 422.792628194092 425.245250001144 428.530295106236 432.597899524347 440.975088357455
-9999 -9999 -9999 -9999 -9999 -9999 -9999 -9999 -9999 499.545771534259 492.382856526966 487.182649955464 480.986636883216 481.244033704443 481.264531166262 478.0923027461 474.903434246214 472.499800538128 470.503087341743 469.284979541939 468.065517184488 467.660566447373 467.68784448773 468.494505898155 468.944739922769 471.273304327156 472.12366469631 473.689606633168 476.08921330669 478.947807003929 485.974166830199 491.175395973358 493.216112207908 495.209065536891 497.625582272095 504.777067699252 511.481879097333 518.658338981364 521.088842511749 -9999 -9999 -9999 -9999 -9999 -9999 -9999 -9999 -9999 -9999 -9999 -9999 -9999 -9999 -9999 -9999 -9999 -9999 -9999 -9999 -9999 -9999 -9999 -9999 -9999 -9999 -9999 -9999 -9999 -9999 -9999 -9999 -9999 -9999 -9999 -9999 -9999 -9999 -9999 -9999 -9999 -9999 -9999 -9999 -9999 -9999 -9999 560.995299153425 559.689704105513 557.080731025587 551.812838295813 548.293086258697 543.010163776422 538.17943445095 530.319423226466 524.605352119085 518.494615185671 513.186401287825 507.89890803248 503.502326486917 499.064980741429 493.779078730728 488.974276952862 483.915896566226 478.513318849554 473.704468799208 470.084210445544 459.931976329999 461.009100246999 470.728832445229 473.646498124227 474.960169682124 474.103198336793 473.23159972817 473.21314683482 473.196009268105 472.421310790368 473.185935521742 473.187109410306 472.381376277317 470.179058992555 466.691828635659 461.797360365202 457.399740327101 454.788477177644 451.669904773192 446.483302129555 439.136767198896 438.104088504493 435.89962336887 433.291261859865 430.203162096636 428.88003993993 427.569093060193 426.607026635081 424.027622568617 420.98478732606 418.084331394215 411.460481557796 410.529112208102 409.384960925961 411.311462698223 414.420847009649 417.080672586836 418.341603118438 418.351193963458 419.953815016066 417.435423908067 414.825578421624 410.882680367887 409.08351329231 408.299881551958 409.237437633805 408.478825747073 408.868079783249 409.280155209587 409.709286448693 412.162943100775 415.306716941944 413.754996494077 410.176006922762 405.671739692938 400.012061229109 395.918170468739 392.712285801259 389.813646746563 387.014111863565 384.130339526065 381.345004162305 379.208864357091 375.230128381977 369.227253468681 369.086795645433 366.225714242498 363.829069898501 361.824264683838 360.531283447556 359.503316852055 360.891849774802 360.138930412412 359.355792111209 358.764015209945 358.242535767642 351.954213195879 351.454204709394 350.96485109814 354.553125498943 351.535140227204 359.691638402886 363.359612038105 365.804998843704 367.875220626239 367.996671521961 371.530936556791 374.798777403797 379.14214977117 383.651636472141 388.158562415901 393.448957509856 398.714574170641 402.69538109978 404.483791522238 407.747805857356 412.934082909662 415.38771073136 415.464978665742 417.155339387757 419.91660777205 422.398005405335 424.006729677782 425.995948681 427.579306925423 426.80408896985 425.610162419757 424.023014600149 422.445689725196 422.40864283305 422.789203194265 422.775243022553 421.096595043473 419.436932672783 414.917983063848 408.52212978194 403.604229926454 400.549253559457 395.938161070128 398.885943786728 410.471326536637 417.476037278045 422.738716728642 425.582127953416 428.943443400731 434.140982662018 439.427934470084
-9999 -9999 -9999 -9999 -9999 -9999 -9999 -9999 -9999 498.745878483301 488.846379566568 485.60439455049 481.730001121156 481.343719970324 481.276319872631 477.287950440507 472.912714986426 470.509035932506 468.89670391456 467.286675459312 465.317478084903 464.53258240546 464.904415928187 465.693372939897 467.285379589258 469.280471014489 470.132017045795 470.96517569601 473.333210496603 477.714145272039 482.923156287676 490.340499133363 493.198445920979 494.8643536522 498.460499769951 505.057140760752 513.853606265687 519.830250174612 521.106213135128 526.968617278497 -9999 -9999 -9999 -9999 -9999 -9999 -9999 -9999 -9999 -9999 -9999 -9999 -9999 -9999 -9999 -9999 -9999 -9999 -9999 -9999 -9999 -9999 -9999 -9999 -9999 -9999 -9999 -9999 -9999 -9999 -9999 -9999 -9999 -9999 -9999 -9999 -9999 -9999 -9999 -9999 -9999 -9999 -9999 -9999 566.290590829441 563.203192200769 560.218793165767 559.685136663574 555.807598520868 551.824976420656 549.166437550185 543.873958098493 538.165187625876 531.185943121951 524.576258867237 518.005091128541 511.442931559743 507.513635570899 503.467956414026 498.50787286359 492.181947208444 487.804097384249 482.513851388645 478.927475786063 472.035593259139 461.486814600936 461.946093875806 472.335015422328 477.127063014674 477.208469067053 476.85248213208 477.621377189122 477.629118815354 477.637188607561 478.501823768012 478.499581400781 478.493648180229 478.477491639865 477.17291067675 473.70281453656 470.191977296221 464.898585706645 461.406309946798 458.28447293289 454.3751624561 448.665205406494 443.030658931811 440.794925276908 438.967446553665 435.483485447115 432.42051033343 431.102725934271 429.756972370983 428.354709151935 425.274467011442 421.217746781207 415.727921444742 411.292080257517 410.620085750789 413.978443504138 417.486459126221 420.921674254251 422.239206300454 423.143043997623 424.060191707794 425.367516038731 426.226728239668 423.189411177209 418.891907445795 417.948432934603 418.40713277272 418.69907527523 418.312196709882 419.085987192366 420.64193608506 420.296021131734 421.480023342068 421.477418790457 417.927298035127 414.206206114444 407.761949815249 403.224340063256 398.814818413298 395.90984089581 392.300699056591 389.406458250982 386.220574680496 383.308183133722 380.871267242787 376.390308103373 371.565233038647 369.104345872325 366.994798958748 364.584064013585 362.211869425066 361.028781659764 362.936275437561 362.961152585067 362.939555824731 361.384674826558 359.383263612314 359.324772317374 358.812210311683 357.216253655892 350.200875122906 349.623373986995 349.125283318813 348.623773788319 360.594181668785 363.019036038594 364.974887091722 364.694304190798 367.527127938521 370.324573791597 371.621537273166 374.116370808288 380.432565378636 385.698048208182 388.559195023356 391.031843236931 396.301753852053 405.502560578618 412.07101533707 416.255045914467 415.794759468494 415.452751814571 416.746049506177 419.1064464301 420.719597323441 422.805783717797 424.398038558887 424.799248341849 424.015958267669 423.975179572998 421.889166976812 420.33513925461 420.302840249901 420.668737480462 419.078641673934 415.804807912503 411.78778203283 406.1116450239 400.143149942071 395.454370458363 392.376426865038 395.111824300587 411.556169846148 418.214521761596 420.711538620826 424.429045760336 430.837583227117 435.367732698976 439.79299220035
541.784478746157 534.977501400221 525.499671238244 518.300208382707 513.496910225055 511.08119364078 507.491647587981 503.996955315967 501.177937973897 496.75766722781 488.823332304843 485.585761370694 482.539926715156 481.027447650901 481.226418030772 476.473481522695 471.344476476052 468.91166612643 467.294117386222 464.91098961708 462.929127711668 461.855769103749 462.124215524507 462.532762987601 463.725466769661 466.412231067912 471.240230558367 471.270372958733 471.372875228507 476.118315241733 480.937715236126 489.135936246348 493.160219188659 495.995105107397 499.672875180858 506.584529384637 512.215172720643 516.288431906665 518.738542990695 528.140413860388 528.595831556003 529.791467221018 -9999 -9999 -9999 -9999 -9999 -9999 -9999 -9999 -9999 -9999 -9999 -9999 -9999 -9999 -9999 -9999 -9999 -9999 -9999 -9999 -9999 -9999 -9999 -9999 -9999 -9999 -9999 -9999 -9999 -9999 -9999 -9999 -9999 -9999 -9999 -9999 -9999 -9999 -9999 -9999 -9999 -9999 567.17922095834 564.092073308355 561.017168540098 560.171368873645 556.690491290699 553.95612291341 549.558214442627 542.202620978447 536.876701697553 529.895661032748 523.304315437081 517.59658134385 512.302743133811 507.858432955812 502.56980366822 497.361742585213 491.351932737458 487.24027082304 481.944663497788 472.995088296647 463.992009690843 463.235726922971 474.525595847511 481.499625955496 481.997711798462 482.013876917501 481.647052850135 483.295828616405 484.19117142836 484.692134559268 485.083448299793 484.687489321711 483.799328860819 483.279915506496 480.693232405457 477.598049481227 473.682035896287 468.890042256241 465.281292205923 461.381765287669 455.23368211411 450.430111624917 446.907534796813 443.046429124727 439.06479677984 437.214942904532 435.098612704392 433.299340189355 431.044530059683 429.481990136575 423.946791242056 420.85473929348 415.607579298226 413.467653851802 417.212235259661 420.530318794855 423.155227989595 424.508974499313 425.440408771828 425.886681431392 427.186032873942 430.672309442889 433.216218282915 432.3366304886 430.63282685795 428.018746577525 429.253835670966 429.669247676292 428.531150542519 428.057796094368 430.063362683056 430.062163247237 430.056246745411 430.806444812468 425.153121511764 421.032833056365 414.58948314572 407.308487392229 403.196321099145 399.991278060858 395.50297825824 392.321903171473 389.009006364368 385.313756150246 381.344224687111 379.653903855867 374.775158619921 369.939794894503 367.486818487604 364.64244658232 363.084823009461 362.688000687764 364.154026843228 364.176952406315 363.780997728913 363.367533208993 362.549743058183 360.897585033193 359.300554136896 356.910968450444 354.523277115079 356.059445271905 351.886767504592 347.717477997357 360.308050981517 360.864757144041 362.537009476071 362.974412707213 364.584468046241 366.592406371273 370.604995212466 369.152039790708 369.235123747939 372.025705928703 376.84689603515 380.139527503061 387.07299106871 398.255260918212 407.209923058281 412.886978131097 415.764668233966 416.267630864142 415.816376992982 416.359149125347 419.104576646786 420.332789965842 422.399125550778 423.975660361979 423.193050295315 422.779447690771 421.097824453981 419.112950655037 417.915219686138 417.877622737161 416.682918053267 414.166606591272 410.523333253062 404.462975228445 399.891161813505 392.298564560334 389.673216282255 391.977545164683 410.757581652752 415.686015498001 419.448559443356 422.885624926619 429.6872196253 434.974783350855 439.795487107274
540.971399712411 531.425551165355 523.514761122813 516.308188721282 510.717404048677 508.29362360754 506.277927075683 502.793351663069 499.958554587195 491.642864603523 488.399008398887 487.774133865616 485.677579896653 483.305261680949 480.809146221363 475.661005078562 471.283219475017 467.724298318833 465.700749238665 463.694138589314 461.412454067782 460.233063089165 460.21905123596 460.235768154434 460.644118397857 460.367304871578 464.212021447765 468.927675017427 471.750501009926 475.720392074399 479.758178905041 486.394495619022 491.200713778116 495.196378860854 499.264732036374 506.66307767364 509.867150112163 513.469032907768 518.313340447737 525.75075141359 528.580815665782 528.606251008221 -9999 -9999 -9999 -9999 -9999 -9999 -9999 -9999 -9999 -9999 -9999 -9999 -9999 -9999 -9999 -9999 -9999 -9999 -9999 -9999 -9999 -9999 -9999 -9999 -9999 -9999 -9999 -9999 -9999 -9999 -9999 -9999 -9999 -9999 -9999 -9999 -9999 -9999 -9999 -9999 -9999 -9999 567.186227130941 564.594993732172 562.387014856908 559.687061788812 556.195737495127 552.679482301405 547.874095645408 541.299282525292 534.690994851824 528.119112405624 522.024917762683 516.725440726905 512.290612237419 507.36499376527 501.350021334363 496.588317286985 490.393230370528 484.83883163349 478.883771909951 468.471536399904 469.106182256504 479.783384590221 485.41947941421 487.669464528857 488.189672316802 488.197024519327 488.597902969176 489.499647618171 490.78910619451 491.677912642523 491.67336700616 490.396970081937 489.491223077621 488.175338106076 484.702188602323 481.087127746311 476.291444214845 471.513180292569 468.384640260605 463.601673209016 459.183202071836 454.39921313348 451.291954479574 447.792983346956 442.532135401587 439.894353758029 437.186415189794 434.563000260546 432.047960643524 428.577376643044 421.901017099551 419.554769645666 419.188746632569 418.763550366799 423.484063127034 424.133170431675 426.369269008212 429.821003180133 430.756563919176 432.020493315054 433.333338107719 435.172743675472 437.751988335968 439.04205876738 439.405711321761 437.298345012194 437.784203778625 440.677305633949 441.077888500263 440.680057177122 438.644534527375 437.437330526796 435.827646073597 434.081542732365 427.650175824064 425.190261735259 420.680752652967 412.232310314545 407.709250232324 403.591182327748 399.607019906759 397.471365297287 393.499073666536 388.966440832007 384.894568455567 381.675005454592 377.144175264184 370.745411044744 368.270911894772 365.866413482474 364.716024963523 365.353647630397 364.990563578104 364.615208774733 364.584726384307 363.807812565098 363.39392294449 362.570075661754 359.698346801241 356.954960693739 356.528634500103 360.846805310788 359.370461900548 347.0198766417 346.362164042857 358.041262837233 358.012346778131 359.560778989075 360.081843721669 363.378837672033 365.400965855785 366.176714542985 364.651011137689 365.091883906341 368.744429725112 372.783954628876 379.71196076427 387.036740136989 396.646546249182 406.4085104721 410.962289549084 414.527962829101 414.984773347947 416.695848435628 418.292546909555 420.681551718995 421.109746701994 421.892952919496 421.887919698304 421.109041100269 420.680457285571 419.027891065862 415.031086131353 415.350038127546 414.180386251921 411.390826004502 408.052292930141 401.640053483747 397.069642402405 391.028453108767 389.188586698413 390.30494645013 404.329166725023 410.183239685675 415.797994275987 421.915841825127 429.553834136964 434.928671150498 438.999605087603
540.562856000848 532.174199068627 522.686741932912 513.530146905943 508.319146087929 505.115730688609 503.209052675615 501.195716048811 497.568867072745 490.449306444104 488.448761881431 488.786524434429 489.163085748955 485.574108370391 481.268696275446 474.073814453497 468.977425936054 466.867137626509 464.477540992545 462.100064115054 460.221441017051 459.132052849142 458.961724050677 459.280516869104 458.904467854101 461.399074203938 466.781553559024 471.213661519073 473.673384126282 476.873667936691 480.117418589192 485.566510048022 491.158789056517 493.628426836434 498.831066532881 505.091578173159 508.702829575173 510.374710411978 516.629999539557 523.439197232737 527.327120882373 529.749382653087 529.769711653209 528.597124124485 528.621714950564 531.438355897226 539.378354510726 -9999 -9999 -9999 -9999 -9999 -9999 -9999 -9999 -9999 -9999 -9999 -9999 -9999 -9999 -9999 -9999 -9999 -9999 -9999 -9999 -9999 -9999 -9999 -9999 -9999 -9999 -9999 -9999 -9999 -9999 -9999 -9999 -9999 -9999 -9999 568.89944945325 568.887431591604 566.798780295756 564.991791823096 562.776350027857 559.283939880728 555.297322657123 550.901096149709 546.087957952171 539.993664620087 533.401553612924 527.20910531061 522.010503139271 517.571798969495 512.597797437317 507.391222967172 500.632694785805 495.150549308793 490.21669586953 477.014758104923 470.311611491793 472.272773170775 484.187663635088 491.562299446726 493.824633570917 494.270114444703 494.295371075009 494.315956237921 495.206216290062 496.106333924213 497.391696284061 498.274483936214 497.009058763756 496.490224364637 495.570643284217 492.108414992433 488.595732429891 483.797141596568 479.005027201472 474.997241448804 470.233414014873 467.084874626266 461.812556418268 458.784348666226 456.084017177699 451.690077081898 446.872688487573 442.062347870666 437.698289526497 432.745538963926 430.463833829793 426.751605372022 421.689304102005 422.400763182199 422.001698479705 421.746220422448 426.689258824115 428.961981661506 432.478492568272 439.295221761236 439.018284722374 438.71589894196 440.060133714624 443.500223486663 446.934836439637 449.094149882681 449.981407985354 451.232457597897 451.264569382819 451.970706927952 453.23207165807 452.826362703641 451.512376769267 448.341490843538 443.51526644542 438.244429475222 433.326841164856 431.266436570569 425.195073882542 419.098452259583 412.219109890826 407.307400958788 403.619864963656 401.972276257783 397.480299590818 391.423376294333 387.393388383174 382.515042303833 377.624424332728 371.562007471086 369.165719908821 368.310533787538 367.853874863313 366.614527039048 365.820588526617 365.408404370278 365.00509829048 364.601696902348 364.191351847097 363.361725439292 360.120408163727 357.750056534468 357.349443467818 360.870452636831 360.852993042899 356.251449750083 345.515893319358 344.817610853706 349.180157946268 350.549938879979 353.686933867197 360.398497765408 362.952036575465 362.972705925614 361.392863207123 360.187555604084 362.65645054558 367.037524948671 373.125669142007 378.094149806029 384.97963748763 393.923478540718 405.157812670288 410.799202486342 413.332489083778 416.236922869752 417.485986486389 420.655331048849 420.682465554598 420.676095768592 419.12700615763 420.666009444581 420.636303927168 414.99380108513 411.870627217653 412.167048716749 411.384070153901 408.890247704862 405.283056437838 400.783756359298 395.082058000264 389.785285654346 388.881012897851 388.878610883988 397.576442610684 404.191102479963 412.278180704832 419.931933888078 427.208025476215 432.545363776598 437.036106497682
540.148811977616 530.206534744884 521.093738378172 510.762747692878 505.933880773576 503.215379321304 501.599293697615 501.144079067506 495.577265671587 490.015745365477 488.82161378442 488.817081062294 488.794726444984 486.756429245595 480.08102548037 473.352943652648 468.936348000046 466.129075912075 463.718433352224 461.536274825218 461.367336181614 461.377682635234 458.691960975347 452.149411771205 453.144416853353 459.767194373305 463.729950564857 469.653302707342 473.67735155269 476.100531453642 479.298326578055 483.611386760875 489.170842649815 494.004967485046 499.588968345664 502.834781342239 506.732067033552 511.061410749449 512.751462916987 517.889934246108 520.336167220117 523.121156711625 525.504878352443 527.407277854905 529.428084151468 534.987924691883 540.187229066914 542.992959730565 -9999 -9999 -9999 -9999 -9999 -9999 -9999 -9999 -9999 -9999 -9999 -9999 -9999 -9999 -9999 -9999 -9999 -9999 -9999 -9999 -9999 -9999 -9999 -9999 -9999 -9999 -9999 -9999 -9999 -9999 -9999 -9999 -9999 -9999 568.907207025951 568.495546915529 566.800482683415 564.985998342716 561.887546753752 558.391933858626 554.880879582436 550.468193628542 544.391087488555 538.685325636223 532.100983661822 526.792074277139 521.978068497922 516.577346406554 511.406855977508 505.830870895406 499.576074310831 492.353715070132 480.944250130814 474.583444287068 484.123931659445 489.587253607068 495.979960113492 497.783789259349 498.715962807922 499.614355235302 500.890799370773 501.309434144924 503.072958616138 503.489167613485 503.992076057155 504.863125403503 503.49111064404 502.675024298248 500.490110016888 497.385214827433 492.09456015529 487.285454566467 482.498054573658 478.116800431481 474.581483621813 470.174761095666 465.31694065897 463.071057620931 460.910595481083 454.379099529262 447.764349572286 441.621777336263 435.685212885351 431.042149437782 429.998603710149 430.046173255536 431.251783882151 430.946009817535 430.889055065023 428.82121126426 432.817095373533 436.414349645802 441.597584963881 447.230225573738 448.206842281518 449.148438038539 453.791954548024 457.745759036552 459.48575051454 460.03594156422 460.089136992583 461.378381544665 462.65948706788 462.575580105561 461.79310246134 461.358426892246 458.973665410991 456.469325700173 454.044745281221 449.963684565653 440.242913557647 436.582979583329 431.67062390608 425.942253881546 416.740718111882 412.196378885329 407.721636803888 404.007902828636 400.378960978857 396.616970502189 389.415374042996 384.871018686319 379.199616358845 373.560898121475 371.553100728653 370.366809221045 370.587744886698 367.924748079811 367.023257500933 366.23124001306 365.809403974673 365.399499409492 364.59918025326 363.767139469875 361.780727200132 359.617670695736 358.919595948971 359.298144629898 358.091920825001 358.067078950752 359.582055533154 343.853797222252 343.120914557522 342.621731840096 349.214112646144 352.812609206884 360.755106872525 359.625044629824 357.281628342729 356.152850666166 357.737622274401 361.445476872047 369.033173992245 374.760060561124 379.226414666099 384.590464962633 390.017023597608 401.890489320501 408.790637213282 412.932164411483 415.770868953851 417.49390856435 419.073263172169 418.289560943276 417.876785735708 417.46923575674 416.272954512499 411.432658580028 409.344501793686 409.265950057529 408.845656468746 406.485615094436 402.829704403826 399.967982847053 393.893577690675 388.758932174627 388.711710724683 388.670612950367 396.719619018489 405.245112308137 411.404858877267 420.222576707479 426.784242887784 432.817454538163 436.630897660466
541.304838311845 529.387861889828 519.108286077548 509.564483589304 504.4430236273 502.402415338892 498.865174680616 498.374452270236 493.539265868628 488.948836373564 491.179736060239 491.18622081545 491.151676765247 485.163083957014 478.503743012048 474.488311589792 470.879570697314 467.67603528401 464.504911297314 461.479907300523 461.426840238378 461.373445178402 459.745616398595 451.322813430126 450.749350961198 457.345669920715 461.437249109703 468.074185521815 473.242435540486 474.895250802438 476.93757255832 480.929203212415 488.343312506658 493.590579799136 499.945429664769 503.934591499932 506.275968098639 509.06377770859 511.155896224691 515.913295296435 520.668423126559 522.715266798066 524.716919995957 527.009347615025 530.226480163896 538.14289852642 540.992940582733 543.786961932304 546.595662115665 548.891800023006 -9999 -9999 -9999 -9999 -9999 -9999 -9999 -9999 -9999 -9999 -9999 -9999 -9999 -9999 -9999 -9999 -9999 -9999 -9999 -9999 -9999 -9999 -9999 -9999 -9999 -9999 -9999 -9999 -9999 -9999 570.697377951347 570.690484386661 570.678032212565 569.383046537351 567.178268035491 564.096620662596 560.993539420262 557.102478474116 553.970507694821 549.155413666289 542.590111239736 536.874311297774 529.93034730429 525.012674791011 520.908580417296 516.221116329622 511.059253275869 504.833783325693 498.207074293562 488.176231831331 478.829816566282 488.084509886248 495.490458496181 501.182211288257 503.450218860033 504.875831723186 505.307143228849 506.218428922297 507.906880914006 508.816631376088 510.094174553214 510.586927473053 510.582279678645 510.086862385479 509.671228889979 507.872409207186 504.394826555604 500.473484160179 495.182077327529 489.902154532348 486.874721633589 481.604739219511 477.186908699977 472.402891356247 468.888166489858 465.300155731495 461.763360807965 454.374081170662 446.935105370057 440.928319608552 435.637767365257 431.513067939976 431.261978045556 433.587131352649 435.861076462513 434.600923922889 432.424693164443 429.762715418225 435.52061848439 443.391444200717 449.997655860695 455.156500591931 458.224238788521 460.042313264083 463.49342625375 464.873385086459 467.052238461238 467.977362462393 469.655894987139 470.958457572081 472.344662882162 472.738683555992 470.685433819682 468.291184045259 465.096510443075 463.359705966062 461.753225220809 460.883281342813 448.752367064954 439.809138618659 434.987444396486 431.612752437377 421.547105277833 416.314576821147 411.006705350295 406.518658075255 402.011202427803 398.376744567868 391.097638707322 387.017622610254 381.310221541147 377.149466064324 374.428297117707 373.100867780702 370.812370573827 369.187599008592 369.063191739585 367.902878987714 366.997577989839 366.194974080073 365.369509497239 363.413107545276 360.573353921376 360.135256907611 360.870028756508 358.916709135559 357.708966744711 354.834958306326 351.2096721811 348.116230518735 348.849504032753 341.603527823504 341.008887714323 345.174204504284 351.474532958626 353.057238356049 352.334737926391 352.373091298738 352.482139064176 356.115293011446 363.711762849441 369.450105741631 374.416560743969 380.028781318028 385.858676162579 391.153444809506 399.623493487102 408.413838734202 412.172038360106 415.36988739994 416.280514483539 415.790174933829 414.601384989838 413.410201260207 412.583680873867 410.182608872795 407.281802443739 405.696951963457 404.881643336908 403.597290887788 402.370993824598 400.645436236118 391.470786577081 388.427217285728 388.44699940239 388.565162457307 398.683218250639 404.488344559548 410.300499263167 418.339251227779 426.743497865881 432.070404569814 436.615481175655
538.906612651992 528.590612680439 518.654189180473 508.746833531482 504.024695027923 501.604004404198 501.146636027883 496.786020420457 492.151315977326 490.117854316412 491.205125591446 491.196919490477 491.112002125888 480.944021215569 476.531911017594 473.710067980012 470.905169196525 468.474840435032 465.290876009878 462.908432489519 461.425461199648 461.346184261869 458.533030985447 450.674435678026 449.29272398362 453.050828479818 460.931593603921 467.226398420513 471.23532034616 472.527658674816 475.698672181931 478.922879180255 484.412946711065 491.185535756293 499.527284325589 501.979840853034 501.300573087409 504.081063486846 508.808613679343 516.699580853028 521.090043666547 523.877977511823 525.505127940387 527.412039816779 530.245885852949 537.760886387002 541.394290272984 544.586025408051 546.981773157066 548.890262854261 549.691032763345 549.205795085337 550.892778454386 -9999 -9999 -9999 -9999 -9999 -9999 -9999 -9999 -9999 -9999 -9999 -9999 -9999 -9999 -9999 -9999 -9999 -9999 -9999 -9999 -9999 -9999 -9999 -9999 -9999 571.59355149895 570.699995395793 570.687975790425 568.916733006754 569.388390573365 568.089789905883 566.773100021395 563.680190017985 560.187014666597 556.193092112665 552.255962628377 546.086656571392 539.994556494136 534.283860274698 528.601081688298 523.570152165926 518.93782939343 514.616330847983 508.807403005381 502.174944671796 492.120677509165 480.087733547885 483.849721574416 495.325864376628 503.895160506664 506.987558002718 509.694448842396 511.398019384852 512.794515706384 514.107262000671 517.547128229994 518.452582915356 517.976497440361 517.578509305205 516.291209874905 514.902193451086 514.476673260876 511.402096764755 508.390838972845 501.330846508345 497.399691073624 493.000506415084 490.735307500833 484.198280714916 479.005345288833 475.376719743788 471.49368968151 467.1058136734 462.227752348161 453.545335067504 445.72713924636 440.161276510165 438.348022162707 435.965790053271 436.774413423774 439.31572373458 440.722505328618 438.597587225048 436.796484014531 434.772505052992 440.463955644035 449.092106009856 459.086200572946 463.516022722164 465.271241711414 467.091088733523 469.280926294318 470.987370927223 473.158667836787 474.582816667649 476.769925427627 478.463498665983 478.98592542577 480.061403359002 480.029743967912 476.347721151874 469.958349745277 467.53044027549 465.097454429568 458.500526385181 449.210494794653 441.491605076298 437.340872258757 432.874422217524 430.73662381666 419.586904048653 414.97530909605 408.533416588437 404.505103126336 401.95212848997 398.340655347205 390.625015571485 384.89564375788 379.281827273324 377.601150969354 375.989068623708 374.014716453152 371.222302307107 370.350085320679 369.501084270487 367.894625873047 366.242071604942 366.178824493526 363.442460407219 362.227884510441 361.799544982487 360.915948411644 360.097802467714 358.898951169107 358.061675535831 353.618665299397 350.833086997022 348.712090156442 349.12927856729 339.758062503452 338.951747033644 338.433513713743 337.935479762977 345.707016850885 347.355982490689 348.54342004658 349.459349000859 354.405354932752 361.829745866095 369.125989987057 378.280982244338 382.866638491409 387.815469599986 393.928833159186 400.435261888401 408.839937634048 411.386738000121 413.760489107606 412.989125622343 411.799154876581 410.222369491327 409.302110685723 407.685399479896 404.49041617109 402.034657398259 400.807898305398 399.9911063361 400.702996941863 396.6202731222 389.805191557241 388.100875592845 388.117388652632 388.196858979782 398.598976144191 404.011317216727 410.997733964834 418.324402898145 427.449907682977 432.103261547758 435.825490350434
536.54471032067 525.135445175743 515.544107663183 507.556319525805 502.840255653077 500.80407378729 498.825717676547 498.320072367411 497.11385624283 494.421708485426 492.813308094298 491.183567655014 487.548438959452 479.338954527691 476.881367992382 474.070113722258 470.891502900708 468.091356118834 465.306469589149 463.67666494724 462.085736588035 461.307449213418 456.90421411985 450.366862467269 449.048099703583 450.292217009668 458.144007444522 461.845944151361 466.892669374523 471.655871953394 474.094397819885 476.530287838449 480.537169175417 488.382866380933 496.301195057643 500.945615116399 501.179961466185 502.91884257981 511.142433474255 519.462914432164 523.465938191102 525.103340563986 526.230987925666 528.618108336731 531.047146821516 538.167678894588 541.002121026691 543.791623337791 546.59066892657 548.875200674145 548.903380497237 549.201359392515 -9999 -9999 -9999 -9999 -9999 -9999 -9999 -9999 -9999 -9999 -9999 -9999 -9999 -9999 -9999 -9999 -9999 -9999 -9999 -9999 -9999 -9999 -9999 -9999 -9999 -9999 570.703526603965 570.690658822741 568.915614986522 569.384457478831 568.076046197867 565.899083064806 564.097232487049 562.770563212757 559.265093214716 554.868442625767 549.562338910526 542.607472766298 536.903609418026 531.213578326749 525.848859149117 522.69891947193 517.708084260256 514.025265692325 508.354914258901 499.765431107958 485.566761115082 488.83828059821 499.121365745637 503.388032861709 508.745455375951 513.583178348137 516.657541861039 518.468471114807 520.664661123222 522.774798621571 524.573441729953 524.983232443785 524.590441561628 524.17370929952 521.9896220617 519.806495488041 519.27852059772 517.079701069834 511.880281973172 506.159447494346 499.590245605113 494.797033281703 491.183306008375 485.998476862934 481.100786044762 477.589544682464 474.078787130752 469.201424742574 461.752990376356 451.203207408054 445.274255818036 441.161582655722 440.903305145619 442.103965463652 442.109366623926 440.950129450973 443.041131745745 443.05622084938 443.016391315962 441.64177523897 440.715537649573 455.956308432314 464.757907359255 468.847850958513 471.483205982781 473.209874585956 475.372675366584 476.308359349624 477.632809909956 479.826166779912 482.878412201463 484.18779575512 485.088050141804 485.787534958972 486.149445588535 481.335928738694 478.891468322511 474.810452238603 469.905852449318 460.658517361415 449.28995102619 438.770650679414 435.473762646158 432.545029288712 430.854589117883 426.699392897806 419.457095764973 411.449904876771 406.571844273722 405.31113565623 402.762712323918 397.406747472716 388.536499677406 382.915897626509 380.130638912231 379.622144817068 377.564493146716 375.226369798322 374.353855583755 370.002411368808 368.729273263367 367.909168683868 366.996862008682 365.396920888603 364.203453126498 363.398204667146 362.216884245209 361.405921823833 360.121803656977 360.870474492499 359.657360644791 356.474757804992 353.207070603678 351.591027679513 349.811586898907 349.242034020818 344.769591280328 336.756408720815 335.973132348508 338.546276161705 338.960379350234 340.041106520384 342.521338061356 357.925900657395 365.404574741351 371.93225086495 378.760583114326 384.4655135703 390.173393293231 397.067101171795 403.544883439749 407.642791553237 409.64188860391 410.152965711815 409.284634992279 408.487703051263 407.282829358661 404.89649657216 401.626616467985 399.244009620737 397.134641962114 395.504350532 393.514113217898 390.267535779309 388.55978500032 387.952174659268 388.006395392208 388.304301165856 395.089024507341 403.551227978091 411.351669081697 417.897471902974 427.852112047431 433.181403202094 435.024272957364
535.34153259155 525.467367635924 514.714746318007 507.148844708129 502.810649301219 498.871343890868 498.804618512608 498.785107688636 498.788383695127 499.956051288981 497.549819027625 491.162106329986 482.921141732712 478.118458380164 474.513068546599 472.495338288074 470.086002077061 467.290348450612 464.900023255786 463.280793455513 460.98184468605 458.930934656721 453.800281483353 450.239570108416 448.831493348568 448.373016837578 453.441844873949 459.01861572799 464.108059610686 469.254714180849 472.46983056098 474.884835379324 476.953528036736 483.308660009084 491.055162339431 489.127714321028 498.430197304403 508.216914676463 514.254382609921 521.429059469079 526.121335796742 527.374558644955 528.583351451492 530.979785490555 531.891320727243 539.317177894187 541.392767993753 541.850284682626 545.419498865886 548.483432368083 548.902899345222 549.203167560213 -9999 -9999 -9999 -9999 -9999 -9999 -9999 -9999 -9999 -9999 -9999 -9999 -9999 -9999 -9999 -9999 -9999 -9999 -9999 -9999 -9999 -9999 -9999 -9999 -9999 -9999 571.602385065932 569.815833982819 568.913385456641 568.098512817571 566.304460439608 563.713615787287 561.045979414574 560.968517509695 556.696555060998 552.273651482938 546.075617746371 539.118773414165 534.285060975368 528.859672703604 524.60297473175 521.12469302248 514.939816601347 511.850224327242 506.335013366834 495.582815857776 489.288515243702 498.963682109187 505.651209201846 509.713277482363 512.851834769463 520.945885696894 522.368331243421 523.705701756306 526.788256539802 530.27917417164 531.203310649283 531.216842552674 531.594518835039 529.903559164427 527.213651703056 525.887448973483 523.688549449714 521.06492711102 514.858498729293 507.489558254063 500.036554741162 495.220800018547 491.672761042225 487.271818772818 483.682513164121 479.397145163713 474.902271019601 468.361327848748 460.651590289614 449.917669793052 450.88245685486 450.794279979379 450.063006868707 448.799547786783 447.913593299265 447.907152377556 449.174790712591 450.461154772521 451.326035186846 450.762227975657 447.526787944253 456.594368079821 466.190215691744 472.755706674206 477.156010598433 480.620640158557 480.722011318836 481.642729085758 484.196432523646 487.258128780458 488.587222051066 489.889596506027 490.789801051739 491.102257246329 491.862846860038 489.880444691809 488.162153455904 484.965183811598 479.679540201483 474.326829419739 460.152799892119 447.25415599141 437.940563541284 435.024419758026 429.34310856516 423.663762945129 420.682082260991 418.573713097206 411.36606988472 407.70727516492 404.489770249755 400.682600030553 390.256498982628 386.600737493847 383.715193776809 382.08109783661 380.008995285502 379.607972990372 378.299700956594 374.022693825341 370.728700286843 370.663184676746 368.664092886734 367.007296843245 366.192802780517 365.009391406652 364.208129893192 363.784872942333 362.213958078732 360.9125769009 360.891221983609 360.867964280603 358.482390133834 355.690358134337 352.795888868586 350.010275574231 350.32038003742 350.580850104601 335.485522160782 334.676404138854 333.841863106459 332.888138487632 331.86836017793 347.096990610645 365.062224682709 367.501666473467 373.973161409013 379.212223380617 385.303223043007 391.406638573154 397.475498124364 400.011545305411 402.026817165112 404.500811236909 406.470157050708 406.092287271738 405.281851181556 402.808038612553 400.036007010796 398.754628433736 394.720434520291 391.144419108759 389.111446040813 388.230723893006 387.870498768495 387.870499735412 387.883484589672 387.899525528269 390.577876019622 403.150514975198 410.569743026815 417.118985594583 424.369914918214 430.018869734925 435.300469714603
534.559348054189 523.111143463094 513.948766164035 507.531472253735 502.448151194394 498.889415208333 498.82418735513 498.814712020467 498.821951491225 501.153750403683 496.350334276287 488.39289230168 481.708032470107 476.509794161776 472.530535227307 471.263393854769 468.455220511512 465.282322185877 464.059777864769 462.061324907459 459.733017189391 454.588654446656 450.263682156612 448.992095411041 448.413768881797 448.067428697069 451.05706732328 458.132778085286 462.084537792306 466.088802333332 469.677635628039 472.453800701561 473.710169251308 477.715217808089 481.429563866115 489.255887280024 501.123273924049 507.468275972051 513.068738507489 520.309261769112 530.915816168965 528.642516587634 529.826795975696 532.234867857337 536.185707898773 541.367788961071 540.647165704 543.420303493488 546.972182381947 549.29070367449 548.919465452501 550.887212038743 -9999 -9999 -9999 -9999 -9999 -9999 -9999 -9999 -9999 -9999 -9999 -9999 -9999 -9999 -9999 -9999 -9999 -9999 -9999 -9999 -9999 -9999 -9999 -9999 -9999 575.497826097826 573.798245747351 571.107014191883 569.799901112009 568.105171034212 565.895140078179 562.820036559795 561.004485777029 559.24621894604 554.030153164953 550.841332304545 541.361787199359 536.029616010535 530.719303833603 526.794977673101 522.903495594393 518.457064043845 509.997142986512 509.352630294104 499.796922303218 490.629412716133 499.432377799345 506.566775766928 511.41361608282 516.62326890692 519.771502459356 522.102832953342 526.776674385248 529.382796264976 532.882806847136 538.670511605681 541.253313683634 540.77952489923 541.256518541366 538.673493739064 534.691746010926 530.78888659414 526.389683347425 521.966683248136 516.632800663833 509.166496568652 501.799961627941 495.592834204247 490.764626575369 486.338139440142 483.275481633732 478.428169260003 474.869811691092 464.459387232842 455.968572156701 456.72372792847 459.526414735969 461.357248425453 461.762058922956 460.981138792825 459.246963457513 458.384071218864 459.262509498634 461.775468483263 463.032788902177 460.880570424669 452.744134865118 459.581620151221 469.691946465867 476.773059806505 481.102108281544 485.423213187899 487.240811911129 488.944825318379 490.763755296215 492.57729767679 494.278229374422 495.579344656776 496.481939142918 497.17686413933 497.17886565989 496.776746680053 496.357083011047 493.8612680579 489.858396618698 481.699421076401 477.998396167515 463.333715778564 454.055437957129 442.721374647124 432.904805615966 424.883309743792 419.22939238589 418.274526903089 411.832696621746 408.480940101898 405.302963353526 401.367898949029 393.589337490953 389.440377604042 386.238174118689 384.082279531123 382.091483117612 380.889542381618 380.808218195195 377.974127070473 374.391314317182 371.096034366052 369.518098506235 368.694279718067 367.890839976208 366.996264912603 366.584959083795 366.192587032004 364.975312244926 361.425859353072 360.905228276308 360.894201633016 360.869824077855 359.250700722701 353.215246120294 351.630171799532 351.995959419769 351.572090209531 349.446156164397 349.130355827206 349.403535853762 344.625096253022 331.216064288788 337.414285045843 351.562941032497 363.30286165981 368.723673279122 375.193924558736 380.910008097381 387.768893370126 391.40563826802 394.69609380797 397.116304497568 400.016143071453 403.167501558494 403.58116115472 403.178563176524 401.591252137564 400.754637810011 397.45801328006 393.896613264859 391.008631265749 389.023914304698 387.832365121861 387.786284531483 387.782863011455 387.789081306027 387.906921151283 393.546784837823 404.57540081769 412.060754983851 415.420915210221 419.97058330487 427.175228164223 430.553856949943
534.550946545764 522.327085438578 514.324784754903 509.101477354521 504.419167443321 501.228312666309 500.020478807367 501.181423459633 501.182278597075 501.134523168597 491.613009605862 485.621091584554 480.512427753464 475.708255013763 471.33079434328 468.504362216276 462.993496291154 461.057814666827 460.604774753642 458.991132181398 456.541806186101 450.275983563918 448.219346668251 446.222260986941 445.089255375516 446.054068523303 450.236329914869 455.395932075007 459.034423909402 463.66496126944 466.495616671904 467.995189605386 468.97558580983 470.42285233332 479.799869709988 491.976700784435 502.311036000034 505.517266231148 508.79583786087 519.506418514224 530.894540375671 531.404213215754 532.22813167579 536.160484523503 539.769361036507 542.194957283597 544.58595373125 545.395557946801 548.094066891194 551.272232934001 551.288625052086 550.898799052888 -9999 -9999 -9999 -9999 -9999 -9999 -9999 -9999 -9999 -9999 -9999 -9999 -9999 -9999 -9999 -9999 -9999 -9999 -9999 -9999 -9999 -9999 -9999 -9999 -9999 578.187354028657 575.994941767795 573.303301070052 571.603151974111 569.379700513833 566.303333868888 562.812688313451 560.966436190918 557.100689201384 552.345070482046 549.149629072471 540.434150720404 534.185176550418 529.073539415932 524.717309879689 520.308393205349 519.611582493357 514.165683233494 510.918750023298 500.182495875561 496.383297189258 506.51831212896 513.169410144874 518.467831202318 521.994841196844 524.24937518833 528.897497293572 531.164894624385 534.264002357747 537.798121763998 544.377137830501 548.766642399245 550.066201565759 548.769703181963 545.666643642103 540.37576299438 533.777626532478 526.807287623295 521.970923731981 515.395547043265 509.186711004822 501.312278483951 493.916247349939 487.711346493046 483.836739379236 480.564409325091 473.500821437987 469.012254941787 460.079845123289 461.532977577788 465.689774657535 467.474904917071 470.91295203641 472.705965316063 472.730754765738 473.096777508265 472.704599561622 471.502502025069 473.148517700245 473.16371045028 470.527043642017 461.994342604762 464.788049812646 474.977211116729 481.110660917152 485.969261313846 488.970745486998 490.80257284674 493.374261252548 495.189143011704 497.376435120584 498.691197883972 500.478273625997 501.286609352776 502.076194129348 501.692584299056 502.08340115613 502.460530489848 499.580119725931 494.688328200472 488.579429190165 482.868192599811 473.918292860366 463.75014007995 452.852738014715 440.704313282863 431.691592328486 429.638639238352 418.677220534005 412.240129852163 408.499598626736 404.87331919978 402.316020979211 398.338510751263 391.261923303686 387.860583679057 385.32310524198 383.325080920317 381.335871411289 379.25098737141 377.609506754235 374.413819507478 372.317346359694 370.734576059917 369.914919653804 369.099926953439 368.6743500959 369.477802183361 368.280339979105 366.977969116175 362.615328700184 360.913231580561 360.892512645663 359.306858995857 356.128172409539 354.408112067571 353.992196965382 353.971213129661 353.180927695 350.804332070606 350.792655156548 351.173507972424 349.07629761808 330.722822827211 329.643077267353 342.116930474065 358.688920931641 365.381832603572 371.501250527914 377.992190685845 383.680697396384 387.006524070415 389.813922898231 393.101805920552 397.94341934402 399.189629308451 400.379006164113 400.373920894147 399.572024643972 398.752928142042 396.25757804528 392.691211321622 390.584459403122 388.984779175689 387.813196728522 387.646449395342 387.701912457547 387.741208025366 387.921737688569 392.030343503972 399.34005933086 408.160634405126 413.111701744147 419.178276585857 424.080680418047 430.092815461092
532.979214334535 522.355084274006 514.746526475846 509.942683856212 507.091583295549 504.000631962876 502.416378110324 500.032443043533 501.175450239498 497.157729566935 489.617986679052 485.195670350692 480.502594338921 475.718063060678 470.958293314201 469.252718010383 462.568009798717 459.065673989668 458.949022631128 456.153996201684 451.424990926678 448.605764821442 446.21001841055 444.95038325437 441.710926432123 444.772426454587 450.175900792567 453.763192432518 458.537046440793 460.234129872852 461.029554445672 462.324762087655 469.252639968374 475.59786258996 486.262544244147 493.614503737664 501.932973618055 504.812161573161 509.549544628493 519.535483642186 529.767407294139 533.762542423366 535.384452628668 537.394730015054 540.189953942702 542.604679081889 544.976486649128 546.98537038066 548.894498091287 551.275355834416 551.297695786764 -9999 -9999 -9999 -9999 -9999 -9999 -9999 -9999 -9999 -9999 -9999 -9999 -9999 -9999 -9999 -9999 -9999 -9999 -9999 -9999 -9999 -9999 -9999 -9999 -9999 580.792563202869 579.498558545009 578.589028812607 576.789398544366 573.803025721783 571.08877681719 568.046432610212 562.4491203507 559.337427307671 557.093631512271 553.074061855199 547.853926097663 539.882965319169 532.325347825656 529.087472972565 525.022629356555 520.820080760526 521.071879669183 514.816214671092 508.637234213935 498.901067360802 504.433956058251 513.148624421671 518.888242685555 524.165061431958 528.523899699291 530.746283670671 532.12036134563 534.703822209437 537.785639323495 541.304191661134 548.773519213879 553.075105305804 556.139526883907 552.672320243912 549.150561794718 542.157350104758 535.075660644585 528.06186239987 521.496410813904 514.909372712849 507.910278504983 501.271148032855 493.811464755069 486.465291326632 481.053575726909 473.674293396183 469.657683107562 468.68839711246 469.698677196956 470.930296725553 471.889625018845 474.088516848145 476.793124836549 479.761403767623 481.535650888497 481.949185234125 482.44492555212 483.21405719357 482.851696322314 483.236366325421 484.492733010395 473.696195818031 470.240763413887 480.671823004552 487.654940981804 490.78751678268 492.632309550762 494.345019140804 496.988891511807 499.085435093315 501.276065697824 502.688867817804 504.382338685527 505.676422496329 505.688028399035 505.692141840009 506.476176692746 506.075095734369 503.279242197842 498.761816250202 492.673930722455 485.366067833399 476.398122257754 466.684335645594 456.886481202354 445.886391613285 437.400703129747 430.811603407595 419.222383475672 412.630574709361 408.462561942542 404.921972123778 402.314443141163 400.581078619427 394.422517027966 389.462669293572 387.383104887834 384.899590590628 382.534816452855 380.884099014925 378.005782721241 375.994039384683 374.38451980939 372.730629789507 373.458308799265 369.913177881448 369.112483022159 369.108907893881 370.674747050884 368.294633630628 363.825095556222 360.936496216152 360.893319856544 360.826687537195 356.12782647444 355.688004986019 355.272910236211 354.789324132322 352.405747834959 350.804554002428 350.787584129241 350.795454779162 350.699568418915 336.130917193993 328.954633488216 333.151819267742 352.131354323001 362.439159502637 369.056852289426 375.174254056882 380.461621151438 383.679023252793 385.816700276494 389.399899152645 393.081175457149 395.466293400406 396.658115606366 396.657227332725 395.101570804626 394.683852896054 393.094622353868 390.989906336323 388.995979600895 387.782542275163 387.740999611601 386.929762037817 387.517431607993 387.633104304265 388.331409723058 392.844484765102 399.804772478019 410.813977688593 415.822935016433 421.083616610928 425.63214255128 430.154075548153
532.5863085628 524.300020920452 517.520489776993 512.718225554048 511.082354847599 506.285924716744 504.405134089211 502.393987689165 501.155770002658 492.81946392075 488.019904778386 484.794020423955 480.89500540932 477.665084481285 474.057781192626 470.026349056942 464.838864858031 459.373175715324 454.982324163183 451.062263508538 448.614243797251 445.825245477961 444.582777355833 442.781326358038 440.256833368769 444.008252033797 449.438869555242 450.342873280857 454.19650644642 458.851419435855 459.173319292997 462.239152059002 468.945916222254 473.478793676917 485.609260915445 496.29346152664 501.926420166703 505.123970925757 510.745938238898 521.480477910639 530.579844801011 534.9573545604 537.353777001677 538.595632362753 540.595849842248 542.591873959852 544.595055749247 546.993856170053 548.897848890852 550.104375889074 551.304483008964 -9999 -9999 -9999 -9999 -9999 -9999 -9999 -9999 -9999 -9999 -9999 -9999 -9999 -9999 -9999 -9999 -9999 -9999 -9999 -9999 -9999 -9999 -9999 -9999 -9999 580.798135674932 580.783887689747 579.014876595425 579.469828526701 576.368139857094 571.989518716355 568.088279905205 564.563584960921 560.967774661906 557.058627926723 553.070862413326 547.650788226776 539.314978364402 536.049709149793 530.822479195872 527.700769765219 524.934839152711 521.477069317757 512.268902849239 500.102808014117 503.412625483368 511.310777371778 519.701459477748 524.951103299875 528.985938040063 532.481981486388 534.694752332641 536.494264086353 538.222256827257 540.828957005374 545.178904026755 550.071452226223 554.853507622018 557.421617363003 552.653312231843 546.080128186133 539.504335043225 534.627903244509 527.684212110319 521.48576260136 514.485234925329 507.46983815531 501.136452873187 492.656280851356 484.229729588818 478.370149184416 471.105489480004 475.354922224695 476.762284400653 477.195594762831 477.617429923119 477.661993688016 479.446807429549 482.890640795436 485.965711472394 487.663633852711 488.192988896667 489.846300460248 490.727839562041 490.35315853991 490.737972213504 489.806131645944 483.668481182057 474.406920608216 489.776965698103 492.600394819937 496.457641130637 498.214153633641 499.500607681949 500.846371427609 502.186391040915 503.986087671066 506.173598922922 507.483777885777 508.390690545354 508.987668555501 508.990657419153 508.985694925685 507.29773509552 505.259340105595 499.592428777545 494.272231987139 487.372241496798 477.321796619939 469.860465637968 457.720654834204 448.027644473578 439.820939173008 434.038717832635 424.308753173756 412.712653365432 409.272128501211 404.844282264391 401.019469678355 400.758562430579 396.905468241923 391.455131590121 388.974857324772 386.234656312839 383.315506404836 380.057870878614 379.68403900931 377.936268936018 376.417999746049 375.587632002142 374.345915520877 370.346832578977 369.139377157174 370.691582451111 370.691358771521 370.65657844287 368.245197970804 362.609430644009 360.895245078165 358.506027594572 355.356387302639 355.306764790276 355.705463066923 356.876497670877 352.032701857422 349.250992232335 349.224545421059 350.786108029702 350.72693726761 337.459681899381 328.456006482882 327.231899332266 336.152700362373 355.200379254387 365.337767186819 371.844718199988 375.962868649132 379.650134674084 382.490910164028 385.793272850259 388.586247033224 390.1914099646 390.612581518693 391.00188449148 390.239093729887 390.988565025603 389.802789043511 388.969421287524 386.966664422177 385.299463425067 384.812722586728 386.66244814736 387.207082990791 387.603315444065 390.700241395502 398.381157696045 405.2269147231 411.835126872202 417.884920113276 423.566344682917 428.850255032029 433.277019044515
532.202450980611 525.133133708633 519.918282190318 515.890121428263 510.347624486032 507.910663806377 505.049715941241 502.3860156581 499.132764983177 491.232764792209 487.213383097567 484.396312975978 480.905637297827 476.9248236075 473.709096797495 468.892908039134 461.473299441048 457.397803402856 451.835997963701 449.00024424796 446.586164968298 443.431928814005 442.86966913587 438.937615950349 439.434419916838 444.137548790143 448.903921955802 450.981567565264 453.838386073479 459.443805265899 461.825492578362 467.579069220961 474.119564407163 481.257092391936 484.631773375028 495.195258407835 501.992891918574 505.936649843338 512.342508915697 521.542923031337 530.529121189463 535.382113988597 537.05330719638 539.760068206665 541.38789006109 541.451239527881 544.214609650478 547.000172205468 548.896739995396 550.502538532815 552.892819434947 554.492014305042 -9999 -9999 -9999 -9999 -9999 -9999 -9999 -9999 -9999 -9999 -9999 -9999 -9999 -9999 -9999 -9999 -9999 -9999 -9999 -9999 -9999 -9999 -9999 -9999 -9999 580.796370007113 580.777209705929 578.988148617663 576.381090715624 571.106138523972 567.602357672094 564.587538028115 560.951538315077 555.307560399461 550.541001768692 548.235990546587 542.323217992534 540.003170213739 535.042002812056 530.231865371612 524.95228839481 518.997054462909 505.757777498807 508.470898597156 513.073921477076 521.350260703106 524.194196482838 528.592732346058 533.372042653866 536.488196649293 539.07096647671 540.411186389138 542.221339717358 545.206752039514 549.173457092085 550.916942838395 550.949076212655 550.919170618364 548.783609834967 542.991490185559 536.896828137013 532.476845429622 525.927415212604 519.792223048276 512.746796303726 505.164759366293 499.548897697985 488.990993452898 482.391327687531 478.935829109423 478.489518651298 480.677503213249 482.880824633546 484.670045971978 486.341180950631 486.00530458055 486.085507838449 489.50469980587 490.851489776925 493.366301227327 493.406091421993 495.142138618718 495.162851902129 495.164763327719 495.168042154197 495.132051747488 494.127961657564 488.576660725081 492.129058573243 498.648135036735 500.85566211325 501.751296682969 500.926747372113 501.812800256968 503.998501124241 506.177588662555 507.884996005354 509.186985634816 510.586330348009 510.992783751451 510.996294028983 510.98327067138 509.375724435884 505.273877488386 499.596571464401 495.06970313824 489.417157054719 479.68254867848 471.134878232258 459.802645120124 450.005014839223 443.07046120069 435.347782518393 425.525375277171 415.690758860752 409.373974583879 405.032221294797 400.610018719203 399.143854627943 396.606893434262 392.268365672386 390.598603415203 388.562370793525 384.881170827566 381.335083822863 379.287449756211 379.655398437322 377.5963698636 375.993678632118 374.746435647092 372.325312018061 370.326181186028 372.665461229989 369.130626089803 369.87681940366 367.855819544819 362.225607975869 360.900201049103 359.675218240566 355.756318614633 355.329536514355 355.345336248885 360.82709632574 356.470988648457 351.598080630979 349.222107372356 349.180162454727 349.149249117335 346.213052312572 335.700091295117 326.423517510825 329.079065000195 351.026222650681 360.444702720165 366.561120822037 369.135384460592 373.106236475486 379.599842149719 382.064082004804 384.085292545595 385.294923289193 386.186759107242 386.589778732438 387.380986456301 388.157882775811 386.973862383938 385.284964865251 383.665912702998 382.748163290182 382.852949436426 383.224692045985 385.061267957186 388.188424911026 393.597082363689 401.17384574917 409.646815876379 414.602761497099 419.906474329988 425.204536370474 430.863443258036 435.384413045575
533.41140641111 528.55779065633 523.061810781447 518.233338721962 512.683344205496 508.288009234113 503.261607359182 498.871545844723 496.004165870076 490.041129900687 487.205863762826 484.39536223333 481.311120762493 478.892399159783 475.269566160332 470.048910247457 462.095845778988 455.395303902632 449.104595452011 446.62363707572 443.451863418536 442.171880338252 438.692853132524 438.49015432173 440.257532728184 445.754532764389 450.53907147725 453.357946294585 456.255012193206 460.905899681895 464.450731513224 469.340914303385 476.10073135305 484.916406116497 494.607829247455 501.09637966663 503.233594399236 507.93706724927 513.987094346712 523.071532321236 530.985577693984 536.177457008906 539.379872860695 540.987417715049 541.040407812374 543.004757496945 545.40061247901 547.688048103851 549.29577481277 550.908022492304 553.6863369182 555.293219810942 -9999 -9999 -9999 -9999 -9999 -9999 -9999 -9999 -9999 -9999 -9999 -9999 -9999 -9999 -9999 -9999 -9999 -9999 -9999 -9999 -9999 -9999 -9999 -9999 -9999 580.791894993713 580.771190131591 579.438476000019 575.068839264757 570.312502286532 567.190287707519 563.701710612115 560.584946586627 553.735486541003 550.694157189396 552.271673171286 550.067645555336 543.896436206941 537.782230389231 531.130151877476 523.908965213421 510.409490069138 509.373185864847 516.107370902446 520.142272606769 525.441901742667 528.992455740492 532.888835343737 536.509681155627 540.374241464369 542.965308870848 544.404932793488 547.00185092828 549.272908287799 553.585333906786 554.897718571718 554.881659427159 550.909068656549 546.117176782561 539.192916612229 535.641171929744 530.826442204656 525.004618858121 518.467192265693 509.19117554189 499.28222096164 492.219919874638 484.293609033555 480.260698638672 480.688604938869 482.549863291898 485.99226572658 488.581355995238 490.764856112411 492.568139424758 494.745610548008 496.059941057264 497.753307580898 499.051813312298 499.079243486066 497.86293832199 498.342297018617 497.873467057685 497.870899017295 498.711028064724 498.316337755853 498.561602899945 490.342088082631 499.531675582583 503.430841167768 503.962117125266 503.477043819887 502.712059333966 503.115057098082 505.284601736078 507.490130021251 508.784092842896 510.091593041929 510.608253626288 512.584590526283 512.589715437546 511.786617525062 508.983259611267 504.48690150511 499.19757502855 494.26430140787 487.372978790566 479.286020677994 471.136020987694 459.408905577957 450.805215219294 443.077555058793 434.93362504038 425.388420623184 415.614537417594 411.499766581982 408.343592727803 400.686728140464 399.089134391308 393.942950993787 390.025668109126 390.595729924368 390.56311942021 386.91635648327 382.848514143335 380.040164127253 379.683167653144 377.585444876588 375.96406195787 374.792526650838 373.10003950063 372.686488102586 372.278644027966 370.676028430904 367.874963694135 364.991159562327 361.42650803784 360.902908308 360.872690268408 359.698042728312 359.678499951401 360.058833829303 358.866464482843 356.470009354061 352.782479099645 350.727481758782 347.033793008558 344.343576815988 345.461460576183 343.755531259742 325.920485711024 324.585255172384 344.41768542314 355.273314628563 360.888831509657 363.848558078151 367.930210872704 370.783631733887 376.768877625726 379.672706583759 380.896509963464 381.32139518839 381.738771553056 383.301801160776 384.082188083079 382.524460217395 381.159692816854 380.361943873833 380.584631081922 381.313594000616 382.41362710241 385.696410177902 389.929716301744 397.063919463446 404.07056681042 412.518939268457 418.265523913008 422.421776849247 427.21802885217 432.113327571885 436.214194849669
535.372337528937 530.54245114317 522.679499832228 516.708177761333 511.562699466836 509.487035814179 505.072804447001 501.142252443901 494.793427740756 488.891907019389 487.594694361253 484.798856275938 482.114487306923 481.239984943423 477.221109428707 469.635083351644 461.000259743411 454.576913173138 449.008004217581 446.143047072651 441.848065187351 439.484681229598 437.287592124139 437.41948184866 440.62124664952 446.54457201996 450.170628283624 453.434132263515 456.61067297989 460.579363389608 465.718916010997 471.29525919427 478.210077672636 488.303374084222 498.284362660842 502.775401332391 506.316704098773 510.753346471153 517.101878343914 525.771727019498 532.574305734636 538.53723567876 541.789947750368 543.380844537034 543.010375248378 544.210210217436 546.970481209876 548.492894447976 548.929662968965 551.69066979395 554.081912282346 555.79507336134 557.987096506511 -9999 -9999 -9999 -9999 -9999 -9999 -9999 -9999 -9999 -9999 -9999 -9999 -9999 -9999 -9999 -9999 -9999 -9999 -9999 -9999 -9999 -9999 -9999 -9999 579.008901817712 579.47270056947 576.379529682926 572.01983273641 569.404841355193 566.297598649553 562.814024387815 560.929297215442 558.725370516012 558.331499398228 556.681185873275 553.0847928 547.854333858069 539.478037999737 530.742571731517 519.263565638746 509.873932556325 514.032997176839 520.163347097132 524.18282230603 528.122835225726 533.364584668362 536.885328186764 541.246835880469 543.48693511315 545.718515286743 547.985836344688 551.019010860194 557.002992193129 559.625405349978 560.15967782444 559.270936766142 553.612787437776 547.923135685286 543.488106522947 538.660392555268 531.208390489638 524.188515165632 517.912104056154 510.80665026478 500.911517658451 489.319275771358 486.846086506782 481.185578939956 481.88602095917 488.547074667291 491.684666014753 493.904489999982 495.240567959994 497.056570468732 500.887770310672 503.473358171322 504.393482769698 504.895354891355 504.901889378326 504.899601323293 505.280099988554 504.889045432488 504.018497141452 503.980658701748 502.217871310136 500.0168967717 499.023077349878 503.043513131473 506.149319326501 505.292378153367 504.426790867862 504.412953906615 504.434078663734 505.726058725097 507.903512204925 509.699547966673 510.119069723544 511.401906102668 512.993001410255 512.993762341633 512.173843780648 508.974277560967 504.082658532917 498.385391979285 492.270690341399 485.366233780747 477.272423551911 469.042456358731 458.116453108677 450.37634968071 442.245893047767 433.832594591061 425.122558234826 418.38197965066 413.435031343739 409.973448913125 401.679488892801 398.724621897774 393.834729392029 390.28333011121 389.175988263685 390.396176932439 384.782944086641 380.625943068127 380.307949092114 377.87430091325 375.784440207308 374.395735769858 373.510268635673 372.299810141742 371.488139058868 370.690679731061 369.466596796285 365.38580052787 361.81377466479 360.874457057531 360.843089181172 360.853724143477 360.853393347705 360.835700759226 356.858539505918 354.78774071723 353.582982353518 350.795982291655 348.236538871087 338.019885824906 344.241622856774 344.659560170282 337.793458967628 330.04532231152 323.56280502929 341.569591322 351.955381729903 356.521978506837 360.902085394889 364.974110018604 367.524668379483 371.120585781916 374.406549475991 377.184100251209 378.398797278498 378.824951121142 379.996781697166 380.440581055216 379.723653288099 378.91524438107 379.402636240747 380.214985580661 381.944934157668 384.865407448745 388.642198315556 393.124406418421 400.741639427061 406.541208798535 415.69541484303 422.278629551343 425.595847958226 429.701493978263 434.046873447974 437.793426951634
